25.875 -173.0 41.7076428336
25.875 -174.0 41.3794453124
25.875 -175.0 41.3794453124
25.875 -176.0 41.3794453124
25.875 -177.0 41.3794453124
25.875 -178.0 41.3794453124
25.875 -179.0 41.3794453124
25.875 -180.0 41.3794453124
25.875 -181.0 41.3794453124
25.875 -182.0 41.3794453124
25.875 -183.0 41.3794453124
25.875 -184.0 41.3794453124
25.875 -185.0 40.7379877987
25.875 -186.0 40.7379877987
25.875 -187.0 41.0562653021
25.875 -188.0 41.7076428336
25.875 -192.0 41.7076428336
25.875 -194.0 41.3794453124
25.875 -195.0 41.3794453124
25.875 -203.0 41.3794453124
25.875 -204.0 41.7076428336
25.875 -231.0 41.7076428336
27.0 238.0 45.293671891
27.0 237.0 44.9080993734
27.0 236.0 46.0846584242
27.0 235.0 45.293671891
27.0 234.0 44.9080993734
27.0 225.0 45.293671891
27.0 224.0 44.9080993734
27.0 223.0 45.6858016592
27.0 222.0 44.9080993734
27.0 221.0 45.6858016592
27.0 220.0 45.293671891
27.0 219.0 45.293671891
27.0 218.0 45.293671891
27.0 217.0 46.0846584242
27.0 216.0 46.0846584242
27.0 215.0 45.293671891
27.0 214.0 44.9080993734
27.0 211.0 45.6858016592
27.0 210.0 45.6858016592
27.0 209.0 46.0846584242
27.0 208.0 44.9080993734
27.0 207.0 45.293671891
27.0 205.0 45.293671891
27.0 204.0 46.0846584242
27.0 203.0 45.293671891
27.0 202.0 45.293671891
27.0 201.0 44.9080993734
27.0 200.0 45.293671891
27.0 199.0 45.293671891
27.0 198.0 45.293671891
27.0 197.0 45.293671891
27.0 196.0 45.293671891
27.0 195.0 20.4833794965
27.0 193.0 44.9080993734
27.0 192.0 45.293671891
27.0 191.0 44.9080993734
27.0 188.0 18.5421372673
27.0 187.0 17.989943779
27.0 185.0 42.0409764948
27.0 184.0 41.7076428336
27.0 183.0 45.293671891
27.0 182.0 45.293671891
27.0 181.0 45.293671891
27.0 180.0 45.293671891
27.0 179.0 45.293671891
27.0 178.0 45.293671891
27.0 177.0 45.293671891
27.0 175.0 18.193508877
27.0 174.0 44.9080993734
27.0 173.0 45.293671891
27.0 172.0 45.293671891
27.0 171.0 45.293671891
27.0 170.0 44.9080993734
27.0 169.0 45.293671891
27.0 168.0 45.293671891
27.0 167.0 45.293671891
27.0 166.0 44.9080993734
27.0 165.0 45.293671891
27.0 164.0 45.293671891
27.0 163.0 45.293671891
27.0 162.0 44.9080993734
27.0 161.0 45.293671891
27.0 160.0 45.293671891
27.0 159.0 45.293671891
27.0 158.0 45.293671891
27.0 157.0 45.293671891
27.0 156.0 45.293671891
27.0 155.0 45.293671891
27.0 154.0 45.293671891
27.0 153.0 45.293671891
27.0 152.0 45.293671891
27.0 151.0 45.293671891
27.0 150.0 49.0805797813
27.0 148.0 44.5289200237
27.0 147.0 44.9080993734
27.0 146.0 44.9080993734
27.0 145.0 44.9080993734
27.0 144.0 44.9080993734
27.0 143.0 45.293671891
27.0 142.0 45.293671891
27.0 141.0 45.293671891
27.0 140.0 45.293671891
27.0 139.0 45.293671891
27.0 138.0 45.293671891
27.0 137.0 45.293671891
27.0 136.0 44.9080993734
27.0 135.0 44.9080993734
27.0 134.0 45.293671891
27.0 133.0 45.293671891
27.0 132.0 45.293671891
27.0 131.0 45.293671891
27.0 130.0 17.7248014675
27.0 129.0 44.9080993734
27.0 128.0 45.293671891
27.0 127.0 45.293671891
27.0 124.0 45.293671891
27.0 123.0 45.293671891
27.0 122.0 45.293671891
27.0 121.0 44.9080993734
27.0 120.0 44.9080993734
27.0 119.0 44.9080993734
27.0 118.0 44.9080993734
27.0 117.0 44.9080993734
27.0 116.0 45.293671891
27.0 115.0 44.5289200237
27.0 114.0 45.293671891
27.0 113.0 44.5289200237
27.0 112.0 41.7076428336
27.0 111.0 44.9080993734
27.0 110.0 44.9080993734
27.0 109.0 45.293671891
27.0 108.0 45.293671891
27.0 107.0 45.293671891
27.0 106.0 45.293671891
27.0 105.0 45.293671891
27.0 104.0 44.9080993734
27.0 103.0 45.293671891
27.0 102.0 45.293671891
27.0 101.0 17.530493262
27.0 100.0 44.9080993734
27.0 99.0 44.9080993734
27.0 98.0 47.7509627599
27.0 97.0 44.5289200237
27.0 96.0 18.4714529342
27.0 95.0 44.9080993734
27.0 93.0 44.1559751879
27.0 92.0 44.5289200237
27.0 91.0 44.5289200237
27.0 90.0 21.3674357794
27.0 89.0 21.3674357794
27.0 88.0 44.9080993734
27.0 87.0 45.293671891
27.0 86.0 45.293671891
27.0 85.0 44.5289200237
27.0 84.0 44.1559751879
27.0 83.0 44.5289200237
27.0 82.0 45.293671891
27.0 81.0 45.293671891
27.0 80.0 44.9080993734
27.0 79.0 44.9080993734
27.0 78.0 45.293671891
27.0 77.0 45.293671891
27.0 76.0 45.293671891
27.0 75.0 45.293671891
27.0 74.0 44.9080993734
27.0 73.0 44.5289200237
27.0 72.0 44.1559751879
27.0 71.0 44.5289200237
27.0 70.0 45.293671891
27.0 69.0 45.293671891
27.0 68.0 44.5289200237
27.0 67.0 44.5289200237
27.0 66.0 44.5289200237
27.0 65.0 44.5289200237
27.0 64.0 44.1559751879
27.0 63.0 44.1559751879
27.0 62.0 44.1559751879
27.0 61.0 44.5289200237
27.0 60.0 44.5289200237
27.0 59.0 44.5289200237
27.0 58.0 44.5289200237
27.0 57.0 44.1559751879
27.0 56.0 44.1559751879
27.0 55.0 44.1559751879
27.0 54.0 44.1559751879
27.0 53.0 44.1559751879
27.0 52.0 43.7891114185
27.0 51.0 44.1559751879
27.0 50.0 44.5289200237
27.0 49.0 43.7891114185
27.0 48.0 44.5289200237
27.0 47.0 43.7891114185
27.0 46.0 43.7891114185
27.0 45.0 44.1559751879
27.0 44.0 44.1559751879
27.0 43.0 44.5289200237
27.0 42.0 44.5289200237
27.0 41.0 44.5289200237
27.0 40.0 44.5289200237
27.0 39.0 43.7891114185
27.0 38.0 43.7891114185
27.0 37.0 44.1559751879
27.0 36.0 44.1559751879
27.0 35.0 44.5289200237
27.0 34.0 43.7891114185
27.0 33.0 43.7891114185
27.0 32.0 44.1559751879
27.0 31.0 44.5289200237
27.0 30.0 44.5289200237
27.0 29.0 43.7891114185
27.0 28.0 43.7891114185
27.0 27.0 43.4281802623
27.0 26.0 43.7891114185
27.0 25.0 43.4281802623
27.0 24.0 43.7891114185
27.0 23.0 43.7891114185
27.0 22.0 43.7891114185
27.0 21.0 43.7891114185
27.0 20.0 43.7891114185
27.0 19.0 43.7891114185
27.0 18.0 43.7891114185
27.0 17.0 43.7891114185
27.0 16.0 43.7891114185
27.0 15.0 43.4281802623
27.0 14.0 43.7891114185
27.0 13.0 42.7235457501
27.0 12.0 43.7891114185
27.0 11.0 43.7891114185
27.0 10.0 43.7891114185
27.0 9.0 43.4281802623
27.0 8.0 43.7891114185
27.0 7.0 43.7891114185
27.0 6.0 43.0730380592
27.0 5.0 44.1559751879
27.0 4.0 44.5289200237
27.0 3.0 43.7891114185
27.0 2.0 43.4281802623
27.0 1.0 44.1559751879
27.0 0.0 43.0730380592
27.0 -1.0 43.0730380592
27.0 -2.0 43.7891114185
27.0 -3.0 43.7891114185
27.0 -4.0 44.5289200237
27.0 -5.0 43.7891114185
27.0 -6.0 43.7891114185
27.0 -7.0 43.7891114185
27.0 -8.0 43.7891114185
27.0 -9.0 43.7891114185
27.0 -10.0 42.0409764948
27.0 -11.0 42.7235457501
27.0 -12.0 42.7235457501
27.0 -13.0 43.0730380592
27.0 -14.0 42.3795686942
27.0 -15.0 42.7235457501
27.0 -16.0 42.7235457501
27.0 -17.0 42.7235457501
27.0 -18.0 42.0409764948
27.0 -19.0 42.0409764948
27.0 -20.0 42.7235457501
27.0 -21.0 42.7235457501
27.0 -22.0 42.0409764948
27.0 -23.0 42.7235457501
27.0 -24.0 42.0409764948
27.0 -25.0 42.0409764948
27.0 -26.0 42.0409764948
27.0 -27.0 42.3795686942
27.0 -28.0 42.3795686942
27.0 -29.0 42.0409764948
27.0 -30.0 42.0409764948
27.0 -31.0 42.0409764948
27.0 -32.0 42.0409764948
27.0 -33.0 42.7235457501
27.0 -34.0 43.0730380592
27.0 -35.0 42.7235457501
27.0 -36.0 43.0730380592
27.0 -37.0 42.7235457501
27.0 -38.0 42.7235457501
27.0 -39.0 42.7235457501
27.0 -40.0 42.7235457501
27.0 -41.0 42.0409764948
27.0 -42.0 42.7235457501
27.0 -43.0 43.0730380592
27.0 -44.0 42.7235457501
27.0 -45.0 42.7235457501
27.0 -46.0 42.7235457501
27.0 -47.0 42.7235457501
27.0 -48.0 42.7235457501
27.0 -49.0 42.7235457501
27.0 -50.0 42.7235457501
27.0 -51.0 42.7235457501
27.0 -52.0 42.7235457501
27.0 -53.0 42.7235457501
27.0 -54.0 42.0409764948
27.0 -55.0 42.0409764948
27.0 -56.0 42.7235457501
27.0 -57.0 42.7235457501
27.0 -58.0 42.7235457501
27.0 -59.0 42.7235457501
27.0 -60.0 42.7235457501
27.0 -61.0 42.7235457501
27.0 -62.0 42.7235457501
27.0 -63.0 42.7235457501
27.0 -64.0 42.7235457501
27.0 -65.0 42.7235457501
27.0 -66.0 42.7235457501
27.0 -67.0 42.7235457501
27.0 -68.0 42.7235457501
27.0 -70.0 42.7235457501
27.0 -71.0 42.7235457501
27.0 -72.0 42.3795686942
27.0 -73.0 42.0409764948
27.0 -74.0 42.7235457501
27.0 -75.0 42.7235457501
27.0 -76.0 42.7235457501
27.0 -77.0 42.0409764948
27.0 -78.0 42.0409764948
27.0 -79.0 42.0409764948
27.0 -80.0 42.7235457501
27.0 -81.0 42.7235457501
27.0 -82.0 42.0409764948
27.0 -83.0 42.0409764948
27.0 -84.0 42.7235457501
27.0 -85.0 42.7235457501
27.0 -87.0 42.7235457501
27.0 -88.0 42.7235457501
27.0 -89.0 42.7235457501
27.0 -90.0 42.7235457501
27.0 -91.0 42.7235457501
27.0 -92.0 42.7235457501
27.0 -93.0 42.7235457501
27.0 -94.0 42.7235457501
27.0 -95.0 42.7235457501
27.0 -96.0 42.7235457501
27.0 -97.0 42.7235457501
27.0 -103.0 43.0730380592
27.0 -104.0 42.3795686942
27.0 -105.0 42.0409764948
27.0 -106.0 42.0409764948
27.0 -107.0 42.0409764948
27.0 -108.0 42.0409764948
27.0 -109.0 43.0730380592
27.0 -128.0 43.0730380592
27.0 -132.0 41.3794453124
27.0 -136.0 41.7076428336
27.0 -176.0 40.7379877987
27.0 -179.0 40.7379877987
27.0 -205.0 40.4245012862
27.0 -224.0 40.4245012862
27.0 -231.0 40.4245012862
27.0 -232.0 40.1156976049
28.125 239.0 28.9484758683
28.125 238.0 42.7235457501
28.125 237.0 42.7235457501
28.125 236.0 42.7235457501
28.125 235.0 42.7235457501
28.125 234.0 42.7235457501
28.125 233.0 43.0730380592
28.125 232.0 43.0730380592
28.125 231.0 43.0730380592
28.125 230.0 43.0730380592
28.125 229.0 43.0730380592
28.125 228.0 43.0730380592
28.125 227.0 43.0730380592
28.125 226.0 43.0730380592
28.125 225.0 43.0730380592
28.125 224.0 43.0730380592
28.125 223.0 42.7235457501
28.125 222.0 43.0730380592
28.125 221.0 43.0730380592
28.125 220.0 43.0730380592
28.125 219.0 42.0409764948
28.125 218.0 43.0730380592
28.125 217.0 42.7235457501
28.125 216.0 42.7235457501
28.125 215.0 42.3795686942
28.125 214.0 42.0409764948
28.125 213.0 43.0730380592
28.125 212.0 43.0730380592
28.125 211.0 42.7235457501
28.125 210.0 43.0730380592
28.125 209.0 43.0730380592
28.125 208.0 43.0730380592
28.125 207.0 43.0730380592
28.125 206.0 42.7235457501
28.125 205.0 42.0409764948
28.125 204.0 42.3795686942
28.125 203.0 42.0409764948
28.125 202.0 42.0409764948
28.125 201.0 42.0409764948
28.125 200.0 42.0409764948
28.125 199.0 42.0409764948
28.125 198.0 42.0409764948
28.125 197.0 42.0409764948
28.125 196.0 42.0409764948
28.125 195.0 42.0409764948
28.125 194.0 42.0409764948
28.125 193.0 42.0409764948
28.125 192.0 42.0409764948
28.125 191.0 42.0409764948
28.125 190.0 42.0409764948
28.125 189.0 42.0409764948
28.125 188.0 42.0409764948
28.125 187.0 42.0409764948
28.125 186.0 42.0409764948
28.125 185.0 42.0409764948
28.125 184.0 42.0409764948
28.125 183.0 42.0409764948
28.125 182.0 42.0409764948
28.125 181.0 42.0409764948
28.125 180.0 42.0409764948
28.125 179.0 42.0409764948
28.125 178.0 42.0409764948
28.125 177.0 42.0409764948
28.125 176.0 42.0409764948
28.125 175.0 42.0409764948
28.125 174.0 42.0409764948
28.125 173.0 42.0409764948
28.125 172.0 42.0409764948
28.125 171.0 42.0409764948
28.125 170.0 42.0409764948
28.125 169.0 42.0409764948
28.125 168.0 42.0409764948
28.125 167.0 42.0409764948
28.125 166.0 42.0409764948
28.125 165.0 42.0409764948
28.125 164.0 42.0409764948
28.125 163.0 42.0409764948
28.125 162.0 42.0409764948
28.125 161.0 42.0409764948
28.125 160.0 42.0409764948
28.125 159.0 42.0409764948
28.125 158.0 42.0409764948
28.125 157.0 42.0409764948
28.125 156.0 42.0409764948
28.125 155.0 42.0409764948
28.125 154.0 42.0409764948
28.125 153.0 42.0409764948
28.125 152.0 42.0409764948
28.125 151.0 42.0409764948
28.125 150.0 42.0409764948
28.125 149.0 42.0409764948
28.125 148.0 42.0409764948
28.125 147.0 42.0409764948
28.125 146.0 42.0409764948
28.125 145.0 42.7235457501
28.125 144.0 42.7235457501
28.125 143.0 42.0409764948
28.125 142.0 42.0409764948
28.125 141.0 42.0409764948
28.125 140.0 42.7235457501
28.125 139.0 42.7235457501
28.125 138.0 42.0409764948
28.125 137.0 42.0409764948
28.125 136.0 42.7235457501
28.125 135.0 42.7235457501
28.125 134.0 42.0409764948
28.125 133.0 42.0409764948
28.125 132.0 42.0409764948
28.125 131.0 42.0409764948
28.125 130.0 42.7235457501
28.125 129.0 42.7235457501
28.125 128.0 42.0409764948
28.125 127.0 42.7235457501
28.125 126.0 42.0409764948
28.125 125.0 42.0409764948
28.125 124.0 42.7235457501
28.125 123.0 42.7235457501
28.125 122.0 42.0409764948
28.125 121.0 42.0409764948
28.125 120.0 42.0409764948
28.125 119.0 42.0409764948
28.125 118.0 42.0409764948
28.125 117.0 42.0409764948
28.125 116.0 42.0409764948
28.125 115.0 42.0409764948
28.125 114.0 42.0409764948
28.125 113.0 42.0409764948
28.125 112.0 42.0409764948
28.125 111.0 42.7235457501
28.125 110.0 42.0409764948
28.125 109.0 42.0409764948
28.125 108.0 42.0409764948
28.125 107.0 42.0409764948
28.125 106.0 42.0409764948
28.125 105.0 42.0409764948
28.125 104.0 42.0409764948
28.125 103.0 42.0409764948
28.125 102.0 42.0409764948
28.125 101.0 42.0409764948
28.125 100.0 42.0409764948
28.125 99.0 42.0409764948
28.125 98.0 42.0409764948
28.125 97.0 42.0409764948
28.125 96.0 42.0409764948
28.125 95.0 43.0730380592
28.125 94.0 42.0409764948
28.125 93.0 42.0409764948
28.125 92.0 42.0409764948
28.125 91.0 42.0409764948
28.125 90.0 42.0409764948
28.125 89.0 42.0409764948
28.125 88.0 42.0409764948
28.125 87.0 42.0409764948
28.125 86.0 42.3795686942
28.125 85.0 42.3795686942
28.125 84.0 43.0730380592
28.125 83.0 42.7235457501
28.125 82.0 42.3795686942
28.125 81.0 41.3794453124
28.125 80.0 42.0409764948
28.125 79.0 43.0730380592
28.125 78.0 20.3146045421
28.125 77.0 42.7235457501
28.125 76.0 42.3795686942
28.125 75.0 42.7235457501
28.125 74.0 42.7235457501
28.125 73.0 36.7400199249
28.125 72.0 42.3795686942
28.125 71.0 42.3795686942
28.125 70.0 42.3795686942
28.125 69.0 42.3795686942
28.125 68.0 42.3795686942
28.125 67.0 42.3795686942
28.125 66.0 42.3795686942
28.125 65.0 42.3795686942
28.125 64.0 42.3795686942
28.125 63.0 42.3795686942
28.125 62.0 42.3795686942
28.125 61.0 42.3795686942
28.125 60.0 42.3795686942
28.125 59.0 42.3795686942
28.125 58.0 41.3794453124
28.125 57.0 41.3794453124
28.125 56.0 42.3795686942
28.125 55.0 42.3795686942
28.125 54.0 42.3795686942
28.125 53.0 41.3794453124
28.125 52.0 41.3794453124
28.125 51.0 41.3794453124
28.125 50.0 41.3794453124
28.125 49.0 41.3794453124
28.125 48.0 41.3794453124
28.125 47.0 41.3794453124
28.125 46.0 41.3794453124
28.125 45.0 42.3795686942
28.125 44.0 42.3795686942
28.125 43.0 41.3794453124
28.125 42.0 41.3794453124
28.125 41.0 41.3794453124
28.125 40.0 41.3794453124
28.125 39.0 41.3794453124
28.125 38.0 42.3795686942
28.125 37.0 42.3795686942
28.125 36.0 41.3794453124
28.125 35.0 41.3794453124
28.125 34.0 41.3794453124
28.125 33.0 41.3794453124
28.125 32.0 41.3794453124
28.125 31.0 41.3794453124
28.125 30.0 41.3794453124
28.125 29.0 41.3794453124
28.125 28.0 41.3794453124
28.125 27.0 41.3794453124
28.125 26.0 41.3794453124
28.125 25.0 41.3794453124
28.125 24.0 41.3794453124
28.125 23.0 41.3794453124
28.125 22.0 41.3794453124
28.125 21.0 41.3794453124
28.125 20.0 41.3794453124
28.125 19.0 43.0730380592
28.125 18.0 41.3794453124
28.125 17.0 41.3794453124
28.125 16.0 41.3794453124
28.125 15.0 41.3794453124
28.125 14.0 41.3794453124
28.125 13.0 41.3794453124
28.125 12.0 41.3794453124
28.125 11.0 41.3794453124
28.125 10.0 41.3794453124
28.125 9.0 41.3794453124
28.125 8.0 41.3794453124
28.125 7.0 41.3794453124
28.125 6.0 41.3794453124
28.125 5.0 41.3794453124
28.125 4.0 41.3794453124
28.125 3.0 41.3794453124
28.125 2.0 41.3794453124
28.125 1.0 41.3794453124
28.125 0.0 41.3794453124
28.125 -1.0 41.3794453124
28.125 -2.0 41.3794453124
28.125 -3.0 42.0409764948
28.125 -4.0 42.0409764948
28.125 -5.0 42.0409764948
28.125 -6.0 42.0409764948
28.125 -7.0 42.0409764948
28.125 -8.0 42.0409764948
28.125 -9.0 42.0409764948
28.125 -10.0 42.0409764948
28.125 -11.0 42.0409764948
28.125 -12.0 42.0409764948
28.125 -13.0 42.0409764948
28.125 -14.0 42.0409764948
28.125 -15.0 42.0409764948
28.125 -16.0 42.0409764948
28.125 -17.0 42.0409764948
28.125 -18.0 42.0409764948
28.125 -19.0 42.0409764948
28.125 -20.0 42.0409764948
28.125 -21.0 42.0409764948
28.125 -22.0 41.7076428336
28.125 -23.0 41.7076428336
28.125 -24.0 41.7076428336
28.125 -25.0 42.0409764948
28.125 -26.0 42.0409764948
28.125 -27.0 41.7076428336
28.125 -28.0 41.7076428336
28.125 -29.0 41.7076428336
28.125 -30.0 42.0409764948
28.125 -31.0 42.0409764948
28.125 -32.0 41.7076428336
28.125 -33.0 40.7379877987
28.125 -34.0 41.7076428336
28.125 -35.0 41.7076428336
28.125 -36.0 41.7076428336
28.125 -37.0 41.7076428336
28.125 -38.0 40.7379877987
28.125 -39.0 41.7076428336
28.125 -40.0 41.7076428336
28.125 -41.0 40.7379877987
28.125 -42.0 41.7076428336
28.125 -43.0 41.7076428336
28.125 -44.0 41.7076428336
28.125 -45.0 41.7076428336
28.125 -46.0 41.7076428336
28.125 -47.0 41.7076428336
28.125 -48.0 40.7379877987
28.125 -49.0 41.7076428336
28.125 -50.0 41.7076428336
28.125 -51.0 41.7076428336
28.125 -52.0 41.7076428336
28.125 -53.0 41.7076428336
28.125 -54.0 41.7076428336
28.125 -55.0 40.7379877987
28.125 -56.0 40.7379877987
28.125 -57.0 40.7379877987
28.125 -58.0 42.3795686942
28.125 -59.0 41.3794453124
28.125 -60.0 40.7379877987
28.125 -61.0 40.7379877987
28.125 -62.0 40.7379877987
28.125 -63.0 40.7379877987
28.125 -64.0 40.7379877987
28.125 -65.0 40.7379877987
28.125 -66.0 40.7379877987
28.125 -67.0 40.7379877987
28.125 -68.0 41.7076428336
28.125 -69.0 41.7076428336
28.125 -70.0 40.7379877987
28.125 -71.0 40.7379877987
28.125 -72.0 40.7379877987
28.125 -73.0 40.7379877987
28.125 -74.0 40.7379877987
28.125 -75.0 40.7379877987
28.125 -76.0 40.7379877987
28.125 -77.0 40.7379877987
28.125 -78.0 40.7379877987
28.125 -79.0 40.7379877987
28.125 -80.0 40.7379877987
28.125 -81.0 40.7379877987
28.125 -82.0 40.7379877987
28.125 -83.0 40.7379877987
28.125 -84.0 40.7379877987
28.125 -85.0 40.7379877987
28.125 -86.0 40.7379877987
28.125 -87.0 41.7076428336
28.125 -88.0 40.7379877987
28.125 -89.0 40.7379877987
28.125 -90.0 40.7379877987
28.125 -91.0 40.7379877987
28.125 -92.0 40.7379877987
28.125 -93.0 40.7379877987
28.125 -94.0 40.7379877987
28.125 -95.0 40.7379877987
28.125 -96.0 40.7379877987
28.125 -97.0 40.7379877987
28.125 -98.0 42.3795686942
28.125 -99.0 41.7076428336
28.125 -142.0 41.0562653021
28.125 -209.0 40.1156976049
28.125 -210.0 41.0562653021
28.125 -211.0 41.0562653021
28.125 -212.0 40.1156976049
28.125 -213.0 40.7379877987
28.125 -214.0 40.1156976049
28.125 -215.0 40.7379877987
28.125 -216.0 40.1156976049
28.125 -217.0 40.1156976049
28.125 -218.0 40.4245012862
28.125 -219.0 40.4245012862
28.125 -220.0 40.4245012862
28.125 -221.0 40.4245012862
28.125 -222.0 40.4245012862
28.125 -223.0 40.4245012862
28.125 -224.0 40.1156976049
28.125 -225.0 40.4245012862
28.125 -226.0 40.4245012862
28.125 -227.0 40.4245012862
28.125 -235.0 39.5117221342
28.125 -236.0 39.5117221342
28.125 -237.0 40.4245012862
28.125 -238.0 40.4245012862
29.25 239.0 42.0409764948
29.25 238.0 42.0409764948
29.25 237.0 42.0409764948
29.25 236.0 43.0730380592
29.25 235.0 43.0730380592
29.25 234.0 42.0409764948
29.25 233.0 42.0409764948
29.25 232.0 42.0409764948
29.25 231.0 42.0409764948
29.25 230.0 42.0409764948
29.25 229.0 42.0409764948
29.25 228.0 42.0409764948
29.25 227.0 42.0409764948
29.25 226.0 42.0409764948
29.25 225.0 42.0409764948
29.25 224.0 42.0409764948
29.25 223.0 42.0409764948
29.25 222.0 43.0730380592
29.25 221.0 43.0730380592
29.25 220.0 42.0409764948
29.25 219.0 42.0409764948
29.25 218.0 42.0409764948
29.25 217.0 42.0409764948
29.25 216.0 42.0409764948
29.25 215.0 42.0409764948
29.25 214.0 42.0409764948
29.25 213.0 42.0409764948
29.25 212.0 42.0409764948
29.25 211.0 42.0409764948
29.25 210.0 42.0409764948
29.25 209.0 42.0409764948
29.25 208.0 42.0409764948
29.25 207.0 42.0409764948
29.25 206.0 42.0409764948
29.25 205.0 42.0409764948
29.25 204.0 42.0409764948
29.25 203.0 42.0409764948
29.25 202.0 42.0409764948
29.25 201.0 42.0409764948
29.25 200.0 42.0409764948
29.25 199.0 42.0409764948
29.25 198.0 42.0409764948
29.25 197.0 42.0409764948
29.25 196.0 42.0409764948
29.25 195.0 42.0409764948
29.25 194.0 42.0409764948
29.25 193.0 42.0409764948
29.25 192.0 42.0409764948
29.25 191.0 42.0409764948
29.25 190.0 42.0409764948
29.25 189.0 42.0409764948
29.25 188.0 43.0730380592
29.25 187.0 42.0409764948
29.25 186.0 42.0409764948
29.25 185.0 42.0409764948
29.25 184.0 42.0409764948
29.25 183.0 42.0409764948
29.25 182.0 42.0409764948
29.25 181.0 42.0409764948
29.25 180.0 42.0409764948
29.25 179.0 42.0409764948
29.25 178.0 42.0409764948
29.25 177.0 42.0409764948
29.25 176.0 42.0409764948
29.25 175.0 42.0409764948
29.25 174.0 42.0409764948
29.25 173.0 42.0409764948
29.25 172.0 42.0409764948
29.25 171.0 42.0409764948
29.25 170.0 42.0409764948
29.25 169.0 42.0409764948
29.25 168.0 42.0409764948
29.25 167.0 42.0409764948
29.25 166.0 42.0409764948
29.25 165.0 42.0409764948
29.25 164.0 42.0409764948
29.25 163.0 42.0409764948
29.25 162.0 42.0409764948
29.25 161.0 43.0730380592
29.25 160.0 42.0409764948
29.25 159.0 42.0409764948
29.25 158.0 42.0409764948
29.25 157.0 42.0409764948
29.25 156.0 42.0409764948
29.25 155.0 42.0409764948
29.25 154.0 42.0409764948
29.25 153.0 42.0409764948
29.25 152.0 42.0409764948
29.25 151.0 42.0409764948
29.25 150.0 42.0409764948
29.25 149.0 42.0409764948
29.25 148.0 42.0409764948
29.25 147.0 42.0409764948
29.25 146.0 42.0409764948
29.25 145.0 42.0409764948
29.25 144.0 42.0409764948
29.25 143.0 42.0409764948
29.25 142.0 42.0409764948
29.25 141.0 42.0409764948
29.25 140.0 42.0409764948
29.25 139.0 42.0409764948
29.25 138.0 42.0409764948
29.25 137.0 42.0409764948
29.25 136.0 42.0409764948
29.25 135.0 42.0409764948
29.25 134.0 42.0409764948
29.25 133.0 42.0409764948
29.25 132.0 42.0409764948
29.25 131.0 42.0409764948
29.25 130.0 43.7891114185
29.25 129.0 43.7891114185
29.25 128.0 42.0409764948
29.25 127.0 42.0409764948
29.25 126.0 42.0409764948
29.25 125.0 43.7891114185
29.25 124.0 42.0409764948
29.25 123.0 42.0409764948
29.25 122.0 42.0409764948
29.25 121.0 42.0409764948
29.25 120.0 42.0409764948
29.25 119.0 42.0409764948
29.25 118.0 42.0409764948
29.25 117.0 42.0409764948
29.25 116.0 42.0409764948
29.25 115.0 42.0409764948
29.25 114.0 42.0409764948
29.25 113.0 42.0409764948
29.25 112.0 42.0409764948
29.25 111.0 42.0409764948
29.25 110.0 42.0409764948
29.25 109.0 42.0409764948
29.25 108.0 42.0409764948
29.25 107.0 42.0409764948
29.25 106.0 42.0409764948
29.25 105.0 42.0409764948
29.25 104.0 42.0409764948
29.25 103.0 42.0409764948
29.25 102.0 42.0409764948
29.25 101.0 42.0409764948
29.25 100.0 42.0409764948
29.25 99.0 42.0409764948
29.25 98.0 42.0409764948
29.25 97.0 42.0409764948
29.25 96.0 42.0409764948
29.25 95.0 42.0409764948
29.25 94.0 42.0409764948
29.25 93.0 42.0409764948
29.25 92.0 42.0409764948
29.25 91.0 42.0409764948
29.25 90.0 42.0409764948
29.25 89.0 42.0409764948
29.25 88.0 42.0409764948
29.25 87.0 42.0409764948
29.25 86.0 42.0409764948
29.25 85.0 42.0409764948
29.25 84.0 42.0409764948
29.25 83.0 42.0409764948
29.25 82.0 42.0409764948
29.25 81.0 42.7235457501
29.25 80.0 42.7235457501
29.25 79.0 42.7235457501
29.25 78.0 42.7235457501
29.25 77.0 42.7235457501
29.25 76.0 42.7235457501
29.25 75.0 42.7235457501
29.25 74.0 42.7235457501
29.25 73.0 42.7235457501
29.25 72.0 42.7235457501
29.25 71.0 42.7235457501
29.25 70.0 43.0730380592
29.25 69.0 43.0730380592
29.25 68.0 42.0409764948
29.25 67.0 43.0730380592
29.25 66.0 42.0409764948
29.25 65.0 42.7235457501
29.25 64.0 42.7235457501
29.25 63.0 42.7235457501
29.25 62.0 43.0730380592
29.25 61.0 42.7235457501
29.25 60.0 43.0730380592
29.25 59.0 41.3794453124
29.25 58.0 42.7235457501
29.25 57.0 42.7235457501
29.25 56.0 19.0509395165
29.25 55.0 42.7235457501
29.25 54.0 42.7235457501
29.25 53.0 42.7235457501
29.25 52.0 42.7235457501
29.25 51.0 42.7235457501
29.25 50.0 42.7235457501
29.25 49.0 42.7235457501
29.25 48.0 42.7235457501
29.25 47.0 43.0730380592
29.25 46.0 43.0730380592
29.25 45.0 42.7235457501
29.25 44.0 42.7235457501
29.25 43.0 42.7235457501
29.25 42.0 43.0730380592
29.25 41.0 43.0730380592
29.25 40.0 43.0730380592
29.25 39.0 42.7235457501
29.25 38.0 42.3795686942
29.25 37.0 43.0730380592
29.25 36.0 42.7235457501
29.25 35.0 42.3795686942
29.25 34.0 41.3794453124
29.25 33.0 41.3794453124
29.25 32.0 41.3794453124
29.25 31.0 41.3794453124
29.25 30.0 41.3794453124
29.25 29.0 42.7235457501
29.25 28.0 41.3794453124
29.25 27.0 41.3794453124
29.25 26.0 41.3794453124
29.25 25.0 42.7235457501
29.25 24.0 42.3795686942
29.25 23.0 41.3794453124
29.25 22.0 41.3794453124
29.25 21.0 42.3795686942
29.25 20.0 42.3795686942
29.25 19.0 41.3794453124
29.25 18.0 41.3794453124
29.25 17.0 41.3794453124
29.25 16.0 41.3794453124
29.25 15.0 41.3794453124
29.25 14.0 41.3794453124
29.25 13.0 41.3794453124
29.25 12.0 42.3795686942
29.25 11.0 41.3794453124
29.25 10.0 41.3794453124
29.25 9.0 41.3794453124
29.25 8.0 41.3794453124
29.25 7.0 41.3794453124
29.25 6.0 41.3794453124
29.25 5.0 41.3794453124
29.25 4.0 41.3794453124
29.25 3.0 41.3794453124
29.25 2.0 41.3794453124
29.25 1.0 41.3794453124
29.25 0.0 41.3794453124
29.25 -1.0 41.3794453124
29.25 -2.0 41.3794453124
29.25 -3.0 43.0730380592
29.25 -4.0 41.3794453124
29.25 -5.0 41.3794453124
29.25 -6.0 41.3794453124
29.25 -7.0 41.3794453124
29.25 -8.0 41.3794453124
29.25 -9.0 41.3794453124
29.25 -10.0 41.3794453124
29.25 -11.0 41.3794453124
29.25 -12.0 41.3794453124
29.25 -13.0 41.3794453124
29.25 -14.0 41.3794453124
29.25 -15.0 41.3794453124
29.25 -16.0 41.3794453124
29.25 -17.0 42.0409764948
29.25 -18.0 41.3794453124
29.25 -19.0 41.3794453124
29.25 -20.0 41.3794453124
29.25 -21.0 41.3794453124
29.25 -22.0 41.3794453124
29.25 -23.0 41.3794453124
29.25 -24.0 41.3794453124
29.25 -25.0 41.3794453124
29.25 -26.0 41.3794453124
29.25 -27.0 41.3794453124
29.25 -28.0 41.3794453124
29.25 -29.0 41.3794453124
29.25 -30.0 41.3794453124
29.25 -31.0 41.3794453124
29.25 -32.0 41.3794453124
29.25 -33.0 41.3794453124
29.25 -34.0 41.3794453124
29.25 -35.0 42.0409764948
29.25 -36.0 42.0409764948
29.25 -37.0 42.0409764948
29.25 -38.0 41.3794453124
29.25 -39.0 41.3794453124
29.25 -40.0 41.3794453124
29.25 -41.0 41.3794453124
29.25 -42.0 41.3794453124
29.25 -43.0 41.3794453124
29.25 -44.0 42.0409764948
29.25 -45.0 42.0409764948
29.25 -46.0 42.0409764948
29.25 -47.0 42.0409764948
29.25 -48.0 42.0409764948
29.25 -49.0 42.0409764948
29.25 -50.0 42.0409764948
29.25 -51.0 41.3794453124
29.25 -52.0 41.3794453124
29.25 -53.0 42.3795686942
29.25 -54.0 42.3795686942
29.25 -55.0 42.3795686942
29.25 -56.0 42.3795686942
29.25 -57.0 41.3794453124
29.25 -58.0 41.3794453124
29.25 -59.0 41.3794453124
29.25 -60.0 41.7076428336
29.25 -61.0 41.7076428336
29.25 -62.0 23.806962302
29.25 -63.0 41.7076428336
29.25 -64.0 41.7076428336
29.25 -65.0 40.7379877987
29.25 -66.0 41.7076428336
29.25 -67.0 41.7076428336
29.25 -68.0 42.0409764948
29.25 -69.0 40.7379877987
29.25 -70.0 42.3795686942
29.25 -71.0 41.3794453124
29.25 -72.0 41.3794453124
29.25 -73.0 41.7076428336
29.25 -74.0 41.7076428336
29.25 -75.0 41.7076428336
29.25 -76.0 41.7076428336
29.25 -77.0 41.7076428336
29.25 -78.0 42.3795686942
29.25 -79.0 42.3795686942
29.25 -80.0 42.0409764948
29.25 -81.0 41.7076428336
29.25 -82.0 42.0409764948
29.25 -83.0 40.7379877987
29.25 -84.0 40.7379877987
29.25 -85.0 42.3795686942
29.25 -86.0 41.3794453124
29.25 -87.0 41.7076428336
29.25 -88.0 41.3794453124
29.25 -89.0 41.7076428336
29.25 -90.0 40.7379877987
29.25 -91.0 40.7379877987
29.25 -92.0 41.7076428336
29.25 -93.0 40.7379877987
29.25 -94.0 40.7379877987
29.25 -95.0 40.7379877987
29.25 -96.0 41.7076428336
29.25 -97.0 41.3794453124
29.25 -98.0 42.3795686942
29.25 -99.0 41.7076428336
29.25 -109.0 40.7379877987
29.25 -110.0 40.7379877987
29.25 -111.0 40.7379877987
29.25 -112.0 40.7379877987
29.25 -113.0 41.7076428336
29.25 -114.0 41.7076428336
29.25 -115.0 41.7076428336
29.25 -116.0 41.7076428336
29.25 -117.0 41.7076428336
29.25 -118.0 40.7379877987
29.25 -119.0 40.7379877987
29.25 -120.0 40.7379877987
29.25 -121.0 41.0562653021
29.25 -122.0 41.0562653021
29.25 -123.0 41.0562653021
29.25 -124.0 40.7379877987
29.25 -125.0 40.7379877987
29.25 -126.0 40.7379877987
29.25 -127.0 41.3794453124
29.25 -128.0 41.3794453124
29.25 -129.0 41.3794453124
29.25 -130.0 41.3794453124
29.25 -131.0 41.7076428336
29.25 -132.0 41.7076428336
29.25 -133.0 41.7076428336
29.25 -134.0 41.7076428336
29.25 -135.0 41.7076428336
29.25 -136.0 41.7076428336
29.25 -137.0 41.7076428336
29.25 -138.0 41.7076428336
29.25 -139.0 41.7076428336
29.25 -140.0 41.7076428336
29.25 -141.0 41.7076428336
29.25 -142.0 41.7076428336
29.25 -143.0 41.7076428336
29.25 -144.0 41.7076428336
29.25 -145.0 41.0562653021
29.25 -146.0 41.3794453124
29.25 -147.0 41.7076428336
29.25 -148.0 41.7076428336
29.25 -149.0 41.7076428336
29.25 -150.0 40.7379877987
29.25 -151.0 40.7379877987
29.25 -152.0 40.7379877987
29.25 -153.0 41.0562653021
29.25 -154.0 41.0562653021
29.25 -155.0 41.0562653021
29.25 -156.0 41.0562653021
29.25 -157.0 41.0562653021
29.25 -158.0 41.0562653021
29.25 -159.0 41.0562653021
29.25 -160.0 41.0562653021
29.25 -161.0 41.0562653021
29.25 -162.0 41.0562653021
29.25 -163.0 41.0562653021
29.25 -164.0 41.0562653021
29.25 -165.0 41.0562653021
29.25 -166.0 41.0562653021
29.25 -167.0 41.0562653021
29.25 -168.0 41.0562653021
29.25 -169.0 41.0562653021
29.25 -170.0 41.0562653021
29.25 -171.0 40.1156976049
29.25 -172.0 40.1156976049
29.25 -173.0 41.0562653021
29.25 -174.0 41.0562653021
29.25 -175.0 41.0562653021
29.25 -176.0 41.0562653021
29.25 -177.0 41.0562653021
29.25 -178.0 40.1156976049
29.25 -179.0 40.1156976049
29.25 -180.0 41.0562653021
29.25 -181.0 41.0562653021
29.25 -182.0 41.0562653021
29.25 -183.0 40.7379877987
29.25 -184.0 40.7379877987
29.25 -185.0 40.7379877987
29.25 -186.0 41.0562653021
29.25 -187.0 40.1156976049
29.25 -188.0 41.0562653021
29.25 -189.0 40.1156976049
29.25 -190.0 40.7379877987
29.25 -191.0 40.7379877987
29.25 -192.0 41.0562653021
29.25 -193.0 41.0562653021
29.25 -194.0 41.0562653021
29.25 -195.0 41.0562653021
29.25 -197.0 41.0562653021
29.25 -198.0 41.0562653021
29.25 -199.0 41.0562653021
29.25 -200.0 40.1156976049
29.25 -201.0 40.1156976049
29.25 -202.0 40.1156976049
29.25 -203.0 41.0562653021
29.25 -204.0 40.7379877987
29.25 -205.0 40.1156976049
29.25 -206.0 40.1156976049
29.25 -207.0 41.0562653021
29.25 -208.0 41.0562653021
29.25 -209.0 40.1156976049
29.25 -210.0 40.1156976049
29.25 -211.0 40.4245012862
29.25 -212.0 41.0562653021
29.25 -213.0 40.7379877987
29.25 -214.0 40.1156976049
29.25 -215.0 40.4245012862
29.25 -216.0 40.1156976049
29.25 -217.0 40.1156976049
29.25 -218.0 41.0562653021
29.25 -219.0 40.1156976049
29.25 -220.0 41.0562653021
29.25 -221.0 40.1156976049
29.25 -222.0 40.4245012862
29.25 -223.0 40.1156976049
29.25 -224.0 40.4245012862
29.25 -225.0 40.4245012862
29.25 -226.0 40.4245012862
29.25 -227.0 40.1156976049
29.25 -228.0 40.4245012862
29.25 -230.0 40.1156976049
29.25 -231.0 40.4245012862
29.25 -232.0 40.4245012862
29.25 -233.0 40.4245012862
29.25 -234.0 40.4245012862
29.25 -235.0 40.1156976049
29.25 -236.0 40.4245012862
29.25 -239.0 40.4245012862
29.25 -240.0 40.1156976049
30.375 239.0 42.0409764948
30.375 238.0 42.0409764948
30.375 237.0 42.0409764948
30.375 236.0 42.0409764948
30.375 235.0 43.7891114185
30.375 234.0 43.0730380592
30.375 233.0 43.0730380592
30.375 232.0 43.0730380592
30.375 231.0 43.0730380592
30.375 230.0 43.0730380592
30.375 229.0 43.7891114185
30.375 228.0 43.0730380592
30.375 227.0 43.0730380592
30.375 226.0 43.0730380592
30.375 225.0 42.7235457501
30.375 224.0 42.7235457501
30.375 223.0 42.7235457501
30.375 222.0 43.7891114185
30.375 221.0 43.7891114185
30.375 220.0 43.7891114185
30.375 219.0 43.7891114185
30.375 218.0 43.7891114185
30.375 217.0 42.0409764948
30.375 216.0 42.0409764948
30.375 215.0 42.0409764948
30.375 214.0 43.0730380592
30.375 213.0 43.4281802623
30.375 212.0 43.7891114185
30.375 211.0 43.7891114185
30.375 210.0 42.7235457501
30.375 209.0 43.0730380592
30.375 208.0 42.0409764948
30.375 207.0 42.0409764948
30.375 206.0 43.7891114185
30.375 205.0 43.7891114185
30.375 204.0 43.7891114185
30.375 203.0 43.7891114185
30.375 202.0 43.7891114185
30.375 201.0 42.0409764948
30.375 200.0 43.0730380592
30.375 199.0 43.0730380592
30.375 198.0 42.7235457501
30.375 197.0 42.7235457501
30.375 196.0 43.0730380592
30.375 195.0 42.0409764948
30.375 194.0 42.0409764948
30.375 193.0 43.0730380592
30.375 192.0 43.0730380592
30.375 191.0 43.0730380592
30.375 190.0 42.0409764948
30.375 189.0 42.0409764948
30.375 188.0 43.7891114185
30.375 187.0 43.7891114185
30.375 186.0 43.0730380592
30.375 185.0 42.0409764948
30.375 184.0 42.0409764948
30.375 183.0 43.0730380592
30.375 182.0 43.7891114185
30.375 181.0 43.0730380592
30.375 180.0 43.0730380592
30.375 179.0 43.0730380592
30.375 178.0 43.7891114185
30.375 177.0 42.0409764948
30.375 176.0 42.0409764948
30.375 175.0 42.0409764948
30.375 174.0 42.0409764948
30.375 173.0 43.0730380592
30.375 172.0 43.0730380592
30.375 171.0 42.0409764948
30.375 170.0 42.0409764948
30.375 169.0 42.0409764948
30.375 168.0 43.0730380592
30.375 167.0 43.0730380592
30.375 166.0 43.0730380592
30.375 165.0 42.0409764948
30.375 164.0 42.0409764948
30.375 163.0 43.7891114185
30.375 162.0 43.0730380592
30.375 160.0 43.0730380592
30.375 159.0 43.0730380592
30.375 158.0 43.0730380592
30.375 157.0 43.0730380592
30.375 156.0 43.0730380592
30.375 155.0 43.0730380592
30.375 154.0 43.0730380592
30.375 153.0 43.0730380592
30.375 152.0 43.0730380592
30.375 151.0 43.0730380592
30.375 150.0 42.0409764948
30.375 149.0 42.0409764948
30.375 148.0 42.0409764948
30.375 147.0 43.0730380592
30.375 146.0 43.0730380592
30.375 145.0 43.0730380592
30.375 144.0 43.0730380592
30.375 143.0 43.0730380592
30.375 142.0 42.0409764948
30.375 141.0 42.0409764948
30.375 140.0 42.0409764948
30.375 139.0 43.7891114185
30.375 138.0 43.7891114185
30.375 137.0 43.0730380592
30.375 136.0 43.0730380592
30.375 135.0 42.0409764948
30.375 134.0 42.0409764948
30.375 133.0 42.0409764948
30.375 132.0 42.0409764948
30.375 131.0 42.0409764948
30.375 130.0 42.0409764948
30.375 129.0 42.0409764948
30.375 128.0 42.0409764948
30.375 127.0 43.0730380592
30.375 126.0 42.0409764948
30.375 125.0 42.0409764948
30.375 124.0 42.0409764948
30.375 123.0 42.0409764948
30.375 122.0 42.0409764948
30.375 121.0 42.0409764948
30.375 120.0 42.0409764948
30.375 119.0 42.0409764948
30.375 118.0 42.0409764948
30.375 117.0 42.0409764948
30.375 116.0 42.0409764948
30.375 115.0 42.0409764948
30.375 114.0 42.0409764948
30.375 113.0 42.0409764948
30.375 112.0 42.0409764948
30.375 111.0 42.0409764948
30.375 110.0 42.0409764948
30.375 109.0 43.7891114185
30.375 108.0 43.7891114185
30.375 107.0 42.0409764948
30.375 106.0 42.0409764948
30.375 105.0 42.0409764948
30.375 104.0 42.0409764948
30.375 103.0 17.7904283104
30.375 102.0 17.8564912769
30.375 101.0 42.0409764948
30.375 100.0 43.0730380592
30.375 99.0 43.0730380592
30.375 98.0 43.7891114185
30.375 97.0 18.0573425726
30.375 96.0 42.0409764948
30.375 95.0 42.0409764948
30.375 94.0 42.0409764948
30.375 93.0 42.0409764948
30.375 92.0 17.5948383246
30.375 91.0 42.0409764948
30.375 90.0 42.0409764948
30.375 89.0 42.0409764948
30.375 88.0 42.0409764948
30.375 87.0 42.0409764948
30.375 86.0 42.0409764948
30.375 85.0 42.0409764948
30.375 84.0 42.0409764948
30.375 83.0 42.0409764948
30.375 82.0 42.0409764948
30.375 81.0 42.0409764948
30.375 80.0 42.0409764948
30.375 79.0 42.0409764948
30.375 78.0 43.7891114185
30.375 77.0 43.4281802623
30.375 76.0 42.0409764948
30.375 75.0 42.0409764948
30.375 74.0 42.0409764948
30.375 73.0 42.0409764948
30.375 72.0 42.0409764948
30.375 71.0 42.0409764948
30.375 70.0 42.0409764948
30.375 69.0 42.0409764948
30.375 68.0 42.0409764948
30.375 67.0 44.5289200237
30.375 66.0 42.0409764948
30.375 65.0 42.0409764948
30.375 64.0 43.0730380592
30.375 63.0 42.0409764948
30.375 62.0 42.0409764948
30.375 61.0 42.0409764948
30.375 60.0 42.0409764948
30.375 59.0 42.0409764948
30.375 58.0 42.0409764948
30.375 57.0 42.0409764948
30.375 56.0 42.0409764948
30.375 55.0 42.0409764948
30.375 54.0 42.0409764948
30.375 53.0 42.0409764948
30.375 52.0 43.7891114185
30.375 51.0 42.0409764948
30.375 50.0 43.0730380592
30.375 49.0 42.0409764948
30.375 48.0 42.7235457501
30.375 47.0 42.0409764948
30.375 46.0 42.0409764948
30.375 45.0 42.0409764948
30.375 44.0 42.0409764948
30.375 43.0 42.0409764948
30.375 42.0 42.0409764948
30.375 41.0 42.0409764948
30.375 40.0 42.0409764948
30.375 39.0 42.0409764948
30.375 38.0 42.7235457501
30.375 37.0 42.0409764948
30.375 36.0 42.7235457501
30.375 35.0 42.0409764948
30.375 34.0 42.0409764948
30.375 33.0 42.0409764948
30.375 32.0 43.7891114185
30.375 31.0 43.7891114185
30.375 30.0 42.0409764948
30.375 29.0 42.0409764948
30.375 28.0 42.0409764948
30.375 27.0 42.7235457501
30.375 26.0 42.0409764948
30.375 25.0 42.7235457501
30.375 24.0 42.0409764948
30.375 23.0 42.7235457501
30.375 22.0 42.7235457501
30.375 21.0 42.3795686942
30.375 20.0 42.3795686942
30.375 19.0 42.3795686942
30.375 18.0 42.0409764948
30.375 17.0 42.0409764948
30.375 16.0 42.0409764948
30.375 15.0 42.0409764948
30.375 14.0 42.0409764948
30.375 13.0 42.0409764948
30.375 12.0 42.0409764948
30.375 11.0 43.0730380592
30.375 10.0 43.0730380592
30.375 9.0 42.3795686942
30.375 8.0 42.3795686942
30.375 7.0 43.0730380592
30.375 6.0 43.0730380592
30.375 5.0 43.0730380592
30.375 4.0 42.3795686942
30.375 3.0 42.3795686942
30.375 2.0 43.0730380592
30.375 1.0 43.0730380592
30.375 0.0 43.0730380592
30.375 -1.0 43.0730380592
30.375 -2.0 43.0730380592
30.375 -3.0 41.3794453124
30.375 -4.0 43.0730380592
30.375 -5.0 42.3795686942
30.375 -6.0 42.3795686942
30.375 -7.0 42.3795686942
30.375 -8.0 43.0730380592
30.375 -9.0 42.3795686942
30.375 -10.0 43.0730380592
30.375 -11.0 41.3794453124
30.375 -12.0 43.0730380592
30.375 -13.0 43.0730380592
30.375 -14.0 42.3795686942
30.375 -15.0 41.3794453124
30.375 -16.0 42.3795686942
30.375 -17.0 42.3795686942
30.375 -18.0 43.0730380592
30.375 -19.0 41.3794453124
30.375 -20.0 41.3794453124
30.375 -21.0 41.3794453124
30.375 -22.0 41.3794453124
30.375 -23.0 41.3794453124
30.375 -24.0 43.0730380592
30.375 -25.0 41.3794453124
30.375 -26.0 43.0730380592
30.375 -27.0 43.0730380592
30.375 -28.0 41.3794453124
30.375 -29.0 41.3794453124
30.375 -30.0 41.3794453124
30.375 -31.0 41.3794453124
30.375 -32.0 41.3794453124
30.375 -33.0 41.3794453124
30.375 -34.0 42.3795686942
30.375 -35.0 42.3795686942
30.375 -36.0 41.3794453124
30.375 -37.0 41.3794453124
30.375 -38.0 41.3794453124
30.375 -39.0 41.3794453124
30.375 -40.0 41.3794453124
30.375 -41.0 41.3794453124
30.375 -42.0 41.3794453124
30.375 -43.0 41.3794453124
30.375 -44.0 41.3794453124
30.375 -45.0 41.3794453124
30.375 -46.0 41.3794453124
30.375 -47.0 41.3794453124
30.375 -48.0 41.3794453124
30.375 -49.0 42.0409764948
30.375 -50.0 41.3794453124
30.375 -51.0 41.3794453124
30.375 -52.0 41.3794453124
30.375 -53.0 42.0409764948
30.375 -54.0 41.3794453124
30.375 -55.0 41.3794453124
30.375 -56.0 41.3794453124
30.375 -57.0 41.3794453124
30.375 -58.0 41.3794453124
30.375 -59.0 41.3794453124
30.375 -60.0 41.3794453124
30.375 -61.0 41.3794453124
30.375 -62.0 41.3794453124
30.375 -63.0 22.7302996626
30.375 -64.0 41.3794453124
30.375 -65.0 41.3794453124
30.375 -66.0 41.3794453124
30.375 -67.0 41.3794453124
30.375 -68.0 41.3794453124
30.375 -69.0 41.3794453124
30.375 -70.0 41.3794453124
30.375 -71.0 41.3794453124
30.375 -72.0 42.0409764948
30.375 -73.0 42.0409764948
30.375 -74.0 42.0409764948
30.375 -75.0 42.0409764948
30.375 -76.0 42.0409764948
30.375 -77.0 42.0409764948
30.375 -78.0 41.3794453124
30.375 -79.0 41.3794453124
30.375 -80.0 41.3794453124
30.375 -81.0 41.3794453124
30.375 -82.0 41.7076428336
30.375 -83.0 41.3794453124
30.375 -84.0 41.7076428336
30.375 -85.0 41.3794453124
30.375 -86.0 41.3794453124
30.375 -87.0 41.3794453124
30.375 -88.0 41.7076428336
30.375 -89.0 41.3794453124
30.375 -90.0 42.3795686942
30.375 -91.0 41.7076428336
30.375 -92.0 41.3794453124
30.375 -93.0 42.0409764948
30.375 -94.0 41.7076428336
30.375 -95.0 41.7076428336
30.375 -96.0 41.7076428336
30.375 -97.0 41.7076428336
30.375 -98.0 41.7076428336
30.375 -99.0 41.7076428336
30.375 -100.0 41.7076428336
30.375 -101.0 41.7076428336
30.375 -102.0 40.7379877987
30.375 -103.0 41.7076428336
30.375 -104.0 41.7076428336
30.375 -105.0 41.7076428336
30.375 -106.0 41.7076428336
30.375 -107.0 41.7076428336
30.375 -108.0 41.7076428336
30.375 -109.0 41.7076428336
30.375 -110.0 41.7076428336
30.375 -111.0 41.7076428336
30.375 -112.0 41.7076428336
30.375 -113.0 45.293671891
30.375 -114.0 45.293671891
30.375 -115.0 45.293671891
30.375 -116.0 41.7076428336
30.375 -117.0 41.7076428336
30.375 -118.0 41.7076428336
30.375 -119.0 41.7076428336
30.375 -120.0 40.7379877987
30.375 -121.0 41.7076428336
30.375 -122.0 41.7076428336
30.375 -123.0 41.7076428336
30.375 -124.0 41.7076428336
30.375 -125.0 41.7076428336
30.375 -126.0 41.7076428336
30.375 -127.0 41.3794453124
30.375 -128.0 41.3794453124
30.375 -129.0 40.7379877987
30.375 -130.0 40.7379877987
30.375 -131.0 40.7379877987
30.375 -132.0 40.7379877987
30.375 -133.0 41.3794453124
30.375 -134.0 41.3794453124
30.375 -135.0 41.3794453124
30.375 -136.0 41.7076428336
30.375 -137.0 40.7379877987
30.375 -138.0 41.3794453124
30.375 -139.0 40.7379877987
30.375 -140.0 40.7379877987
30.375 -141.0 40.7379877987
30.375 -142.0 40.7379877987
30.375 -143.0 41.3794453124
30.375 -144.0 41.3794453124
30.375 -145.0 41.0562653021
30.375 -146.0 41.0562653021
30.375 -147.0 41.0562653021
30.375 -148.0 41.3794453124
30.375 -149.0 41.3794453124
30.375 -150.0 41.3794453124
30.375 -151.0 41.3794453124
30.375 -152.0 40.7379877987
30.375 -153.0 40.7379877987
30.375 -154.0 41.7076428336
30.375 -155.0 41.7076428336
30.375 -156.0 41.7076428336
30.375 -157.0 41.7076428336
30.375 -158.0 41.7076428336
30.375 -159.0 41.0562653021
30.375 -160.0 41.3794453124
30.375 -161.0 46.4904178419
30.375 -162.0 41.7076428336
30.375 -163.0 41.7076428336
30.375 -164.0 41.7076428336
30.375 -165.0 41.7076428336
30.375 -166.0 41.0562653021
30.375 -167.0 41.0562653021
30.375 -168.0 41.0562653021
30.375 -169.0 41.3794453124
30.375 -170.0 41.3794453124
30.375 -171.0 41.0562653021
30.375 -172.0 41.0562653021
30.375 -173.0 41.0562653021
30.375 -174.0 41.0562653021
30.375 -175.0 41.0562653021
30.375 -176.0 41.0562653021
30.375 -177.0 41.0562653021
30.375 -178.0 41.0562653021
30.375 -179.0 41.0562653021
30.375 -180.0 41.0562653021
30.375 -181.0 41.0562653021
30.375 -182.0 41.0562653021
30.375 -183.0 40.7379877987
30.375 -184.0 40.7379877987
30.375 -185.0 41.0562653021
30.375 -186.0 41.0562653021
30.375 -187.0 41.0562653021
30.375 -188.0 41.0562653021
30.375 -189.0 41.0562653021
30.375 -190.0 41.0562653021
30.375 -191.0 41.0562653021
30.375 -192.0 41.0562653021
30.375 -193.0 40.7379877987
30.375 -194.0 40.7379877987
30.375 -195.0 40.7379877987
30.375 -196.0 40.7379877987
30.375 -197.0 40.7379877987
30.375 -198.0 41.0562653021
30.375 -199.0 41.0562653021
30.375 -200.0 41.0562653021
30.375 -201.0 40.7379877987
30.375 -202.0 40.7379877987
30.375 -203.0 40.7379877987
30.375 -204.0 40.7379877987
30.375 -205.0 40.7379877987
30.375 -206.0 41.0562653021
30.375 -207.0 41.0562653021
30.375 -208.0 41.0562653021
30.375 -209.0 41.0562653021
30.375 -210.0 41.0562653021
30.375 -211.0 41.0562653021
30.375 -212.0 41.0562653021
30.375 -213.0 41.0562653021
30.375 -214.0 42.7235457501
30.375 -215.0 43.0730380592
30.375 -216.0 41.0562653021
30.375 -217.0 41.0562653021
30.375 -218.0 41.0562653021
30.375 -219.0 41.0562653021
30.375 -225.0 40.7379877987
30.375 -226.0 41.0562653021
30.375 -236.0 40.7379877987
30.375 -237.0 40.1156976049
30.375 -238.0 40.7379877987
31.5 238.0 42.7235457501
31.5 237.0 42.7235457501
31.5 236.0 42.7235457501
31.5 235.0 42.7235457501
31.5 234.0 42.7235457501
31.5 233.0 42.7235457501
31.5 232.0 42.7235457501
31.5 231.0 42.7235457501
31.5 230.0 42.7235457501
31.5 229.0 42.7235457501
31.5 228.0 42.7235457501
31.5 227.0 43.7891114185
31.5 226.0 42.7235457501
31.5 225.0 42.7235457501
31.5 224.0 42.7235457501
31.5 223.0 42.7235457501
31.5 222.0 42.7235457501
31.5 221.0 42.7235457501
31.5 220.0 42.7235457501
31.5 219.0 42.7235457501
31.5 218.0 42.7235457501
31.5 217.0 42.7235457501
31.5 216.0 42.7235457501
31.5 215.0 42.7235457501
31.5 214.0 42.7235457501
31.5 213.0 42.7235457501
31.5 212.0 42.7235457501
31.5 211.0 42.7235457501
31.5 210.0 43.7891114185
31.5 209.0 42.7235457501
31.5 208.0 42.7235457501
31.5 207.0 42.7235457501
31.5 206.0 42.7235457501
31.5 205.0 42.7235457501
31.5 204.0 42.7235457501
31.5 203.0 42.7235457501
31.5 202.0 42.7235457501
31.5 201.0 42.7235457501
31.5 200.0 42.7235457501
31.5 199.0 42.7235457501
31.5 198.0 42.7235457501
31.5 197.0 42.7235457501
31.5 196.0 42.7235457501
31.5 195.0 42.7235457501
31.5 194.0 42.7235457501
31.5 193.0 42.7235457501
31.5 192.0 42.7235457501
31.5 191.0 43.7891114185
31.5 190.0 42.7235457501
31.5 189.0 42.7235457501
31.5 188.0 42.7235457501
31.5 187.0 42.7235457501
31.5 186.0 42.7235457501
31.5 185.0 42.7235457501
31.5 184.0 42.7235457501
31.5 183.0 42.7235457501
31.5 182.0 42.7235457501
31.5 181.0 42.7235457501
31.5 180.0 42.7235457501
31.5 179.0 42.7235457501
31.5 178.0 42.7235457501
31.5 177.0 42.7235457501
31.5 176.0 42.7235457501
31.5 175.0 42.7235457501
31.5 174.0 42.7235457501
31.5 173.0 42.7235457501
31.5 172.0 42.7235457501
31.5 171.0 42.7235457501
31.5 170.0 42.7235457501
31.5 169.0 42.7235457501
31.5 168.0 42.7235457501
31.5 167.0 42.7235457501
31.5 166.0 42.7235457501
31.5 165.0 42.7235457501
31.5 164.0 42.7235457501
31.5 163.0 42.7235457501
31.5 162.0 42.7235457501
31.5 161.0 42.7235457501
31.5 160.0 42.7235457501
31.5 159.0 42.7235457501
31.5 158.0 42.7235457501
31.5 157.0 42.7235457501
31.5 156.0 42.7235457501
31.5 155.0 43.7891114185
31.5 154.0 42.7235457501
31.5 153.0 42.7235457501
31.5 152.0 42.7235457501
31.5 151.0 42.7235457501
31.5 150.0 42.7235457501
31.5 149.0 42.7235457501
31.5 148.0 42.7235457501
31.5 147.0 42.7235457501
31.5 146.0 42.7235457501
31.5 145.0 42.7235457501
31.5 144.0 42.7235457501
31.5 143.0 42.7235457501
31.5 142.0 42.7235457501
31.5 141.0 42.7235457501
31.5 140.0 42.7235457501
31.5 139.0 42.7235457501
31.5 138.0 42.7235457501
31.5 137.0 42.7235457501
31.5 136.0 42.7235457501
31.5 135.0 42.7235457501
31.5 134.0 42.7235457501
31.5 133.0 42.7235457501
31.5 132.0 42.7235457501
31.5 131.0 42.7235457501
31.5 130.0 42.7235457501
31.5 129.0 42.7235457501
31.5 128.0 42.7235457501
31.5 127.0 42.7235457501
31.5 126.0 42.7235457501
31.5 125.0 42.7235457501
31.5 124.0 42.7235457501
31.5 123.0 42.7235457501
31.5 122.0 42.7235457501
31.5 121.0 42.7235457501
31.5 120.0 42.7235457501
31.5 119.0 42.7235457501
31.5 118.0 42.7235457501
31.5 117.0 42.7235457501
31.5 116.0 42.7235457501
31.5 115.0 42.7235457501
31.5 114.0 42.7235457501
31.5 113.0 42.7235457501
31.5 112.0 42.7235457501
31.5 111.0 42.7235457501
31.5 110.0 42.7235457501
31.5 109.0 42.7235457501
31.5 108.0 42.7235457501
31.5 107.0 42.7235457501
31.5 106.0 42.7235457501
31.5 105.0 42.7235457501
31.5 104.0 42.7235457501
31.5 103.0 42.7235457501
31.5 102.0 42.7235457501
31.5 101.0 42.7235457501
31.5 100.0 42.7235457501
31.5 99.0 42.7235457501
31.5 98.0 42.7235457501
31.5 97.0 42.7235457501
31.5 96.0 42.7235457501
31.5 95.0 42.7235457501
31.5 94.0 42.7235457501
31.5 93.0 42.7235457501
31.5 92.0 42.7235457501
31.5 91.0 42.7235457501
31.5 90.0 42.7235457501
31.5 89.0 42.7235457501
31.5 88.0 42.7235457501
31.5 87.0 42.7235457501
31.5 86.0 42.7235457501
31.5 85.0 42.7235457501
31.5 84.0 42.7235457501
31.5 83.0 42.7235457501
31.5 82.0 42.7235457501
31.5 81.0 42.7235457501
31.5 80.0 42.7235457501
31.5 79.0 43.4281802623
31.5 78.0 43.4281802623
31.5 77.0 42.7235457501
31.5 76.0 42.7235457501
31.5 75.0 42.7235457501
31.5 74.0 42.7235457501
31.5 73.0 42.7235457501
31.5 72.0 43.4281802623
31.5 71.0 42.7235457501
31.5 70.0 42.7235457501
31.5 69.0 42.7235457501
31.5 68.0 42.7235457501
31.5 67.0 42.7235457501
31.5 66.0 42.7235457501
31.5 65.0 43.4281802623
31.5 64.0 43.4281802623
31.5 63.0 42.7235457501
31.5 62.0 43.4281802623
31.5 61.0 42.7235457501
31.5 60.0 43.4281802623
31.5 59.0 42.0409764948
31.5 58.0 42.0409764948
31.5 57.0 43.4281802623
31.5 56.0 42.7235457501
31.5 55.0 42.0409764948
31.5 54.0 42.0409764948
31.5 53.0 42.7235457501
31.5 52.0 43.7891114185
31.5 51.0 42.7235457501
31.5 50.0 43.4281802623
31.5 49.0 43.4281802623
31.5 48.0 43.7891114185
31.5 47.0 43.0730380592
31.5 46.0 42.7235457501
31.5 45.0 42.7235457501
31.5 44.0 43.0730380592
31.5 43.0 43.7891114185
31.5 42.0 43.7891114185
31.5 41.0 43.7891114185
31.5 40.0 43.7891114185
31.5 39.0 42.0409764948
