-34.6764349146 2.8839583297 44.1559751879
-34.6764349146 2.8574999964 44.1559751879
-34.6764349146 2.8310416631 44.1559751879
-34.6764349146 2.8045833298 44.1559751879
-34.6764349146 2.7781249965 44.1559751879
-34.6764349146 2.7516666632 44.1559751879
-34.6764349146 2.7252083299 44.1559751879
-34.1048852373 2.6987499966 43.4281802623
-34.6764349146 2.6722916633 44.1559751879
-34.6764349146 2.64583333 44.1559751879
-34.6764349146 2.6193749967 44.1559751879
-34.6764349146 2.5929166634 44.1559751879
-34.6764349146 2.5664583301 44.1559751879
-33.8259860524 2.5135416635 43.0730380592
-34.6764349146 2.4870833302 44.1559751879
-34.1048852373 2.4606249969 43.4281802623
-34.6764349146 2.4341666636 44.1559751879
-34.6764349146 2.4077083303 44.1559751879
-34.6764349146 2.3547916637 44.1559751879
-34.3883305851 2.3283333304 43.7891114185
-16.4263186338 2.3018749971 20.9168018514
-34.6764349146 2.2754166638 44.1559751879
-34.6764349146 2.2489583305 44.1559751879
-34.6764349146 2.2224999972 44.1559751879
-34.6764349146 2.1695833306 44.1559751879
-34.6764349146 2.1431249973 44.1559751879
-34.6764349146 2.116666664 44.1559751879
-34.3883305851 2.0902083307 43.7891114185
-34.6764349146 2.0637499974 44.1559751879
-34.6764349146 2.0372916641 44.1559751879
-34.3883305851 2.0108333308 43.7891114185
-34.6764349146 1.9579166642 44.1559751879
-31.0292243603 1.9314583309 39.5117221342
-34.9693148085 1.9049999976 44.5289200237
-34.9693148085 1.8785416643 44.5289200237
-33.8259860524 1.852083331 43.0730380592
-34.6764349146 1.7727083311 44.1559751879
-34.3883305851 1.7462499978 43.7891114185
-34.3883305851 1.6933333312 43.7891114185
-34.3883305851 1.6404166646 43.7891114185
-34.3883305851 1.6139583313 43.7891114185
-34.3883305851 1.587499998 43.7891114185
-33.5515238248 1.5610416647 42.7235457501
-34.3883305851 1.5345833314 43.7891114185
-33.5515238248 1.5081249981 42.7235457501
-34.3883305851 1.4816666648 43.7891114185
-33.5515238248 1.4552083315 42.7235457501
-34.3883305851 1.4287499982 43.7891114185
-34.3883305851 1.4022916649 43.7891114185
-34.3883305851 1.3758333316 43.7891114185
-34.3883305851 1.3493749983 43.7891114185
-34.3883305851 1.322916665 43.7891114185
-34.3883305851 1.2964583317 43.7891114185
-34.3883305851 1.2699999984 43.7891114185
-34.3883305851 1.2435416651 43.7891114185
-33.8259860524 1.2170833318 43.0730380592
-34.3883305851 1.1906249985 43.7891114185
-33.5515238248 1.1641666652 42.7235457501
-34.9693148085 1.1377083319 44.5289200237
-34.3883305851 1.1112499986 43.7891114185
-34.3883305851 1.0847916653 43.7891114185
-34.9693148085 1.058333332 44.5289200237
-34.3883305851 1.0318749987 43.7891114185
-34.3883305851 1.0054166654 43.7891114185
-34.3883305851 0.9789583321 43.7891114185
-34.9693148085 0.9524999988 44.5289200237
-34.9693148085 0.9260416655 44.5289200237
-34.9693148085 0.8995833322 44.5289200237
-34.3883305851 0.8731249989 43.7891114185
-34.3883305851 0.8466666656 43.7891114185
-34.3883305851 0.8202083323 43.7891114185
-34.1048852373 0.793749999 43.4281802623
-34.1048852373 0.7672916657 43.4281802623
-34.1048852373 0.7408333324 43.4281802623
-33.5515238248 0.7143749991 42.7235457501
-33.5515238248 0.6879166658 42.7235457501
-34.1048852373 0.6614583325 43.4281802623
-36.8339255557 0.6349999992 46.9032617372
-36.8339255557 0.6085416659 46.9032617372
-34.3883305851 0.5820833326 43.7891114185
-34.3883305851 0.5556249993 43.7891114185
-33.0154906321 0.4762499994 42.0409764948
-34.1048852373 0.4497916661 43.4281802623
-34.1048852373 0.4233333328 43.4281802623
-34.1048852373 0.3968749995 43.4281802623
-18.5209704531 0.3704166662 23.5840712518
-34.1048852373 0.3439583329 43.4281802623
-34.1048852373 0.3174999996 43.4281802623
-34.1048852373 0.2910416663 43.4281802623
-34.1048852373 0.264583333 43.4281802623
-34.1048852373 0.2381249997 43.4281802623
-34.1048852373 0.2116666664 43.4281802623
-34.3883305851 0.1852083331 43.7891114185
-34.1048852373 0.1587499998 43.4281802623
-33.281392819 0.1322916665 42.3795686942
-34.3883305851 0.1058333332 43.7891114185
-33.8259860524 0.0793749999 43.0730380592
-34.3883305851 0.0529166666 43.7891114185
-33.5515238248 0.0264583333 42.7235457501
-34.1048852373 0.0 43.4281802623
-33.8259860524 -0.0264583333 43.0730380592
-34.1048852373 -0.0529166666 43.4281802623
-34.1048852373 -0.0793749999 43.4281802623
-34.3883305851 -0.1058333332 43.7891114185
-33.8259860524 -0.1322916665 43.0730380592
-37.8414519794 -0.1587499998 48.1862169162
-34.3883305851 -0.1852083331 43.7891114185
-34.1048852373 -0.2116666664 43.4281802623
-34.1048852373 -0.2381249997 43.4281802623
-13.9195866889 -0.264583333 17.7248014675
-34.9693148085 -0.2910416663 44.5289200237
-33.8259860524 -0.3174999996 43.0730380592
-34.1048852373 -0.3439583329 43.4281802623
-33.8259860524 -0.3968749995 43.0730380592
-34.1048852373 -0.4497916661 43.4281802623
-34.3883305851 -0.4762499994 43.7891114185
-33.8259860524 -0.5027083327 43.0730380592
-34.1048852373 -0.529166666 43.4281802623
-34.1048852373 -0.5556249993 43.4281802623
-33.8259860524 -0.5820833326 43.0730380592
-33.281392819 -0.6085416659 42.3795686942
-33.8259860524 -0.6349999992 43.0730380592
-33.0154906321 -0.6614583325 42.0409764948
-33.8259860524 -0.6879166658 43.0730380592
-33.0154906321 -0.7143749991 42.0409764948
-33.8259860524 -0.7408333324 43.0730380592
-33.5515238248 -0.7672916657 42.7235457501
-33.8259860524 -0.8202083323 43.0730380592
-33.8259860524 -0.8466666656 43.0730380592
-33.8259860524 -0.8731249989 43.0730380592
-33.281392819 -0.8995833322 42.3795686942
-34.3883305851 -0.9260416655 43.7891114185
-34.1048852373 -0.9524999988 43.4281802623
-34.3883305851 -0.9789583321 43.7891114185
-33.8259860524 -1.0054166654 43.0730380592
-34.3883305851 -1.0318749987 43.7891114185
-34.3883305851 -1.058333332 43.7891114185
-34.1048852373 -1.0847916653 43.4281802623
-33.8259860524 -1.1112499986 43.0730380592
-33.8259860524 -1.1377083319 43.0730380592
-33.8259860524 -1.1641666652 43.0730380592
-33.5515238248 -1.1906249985 42.7235457501
-33.5515238248 -1.2170833318 42.7235457501
-33.8259860524 -1.2699999984 43.0730380592
-33.0154906321 -1.2964583317 42.0409764948
-33.281392819 -1.322916665 42.3795686942
-33.5515238248 -1.3493749983 42.7235457501
-33.8259860524 -1.4022916649 43.0730380592
-33.5515238248 -1.4287499982 42.7235457501
-33.8259860524 -1.4552083315 43.0730380592
-33.5515238248 -1.4816666648 42.7235457501
-34.3883305851 -1.5081249981 43.7891114185
-33.0154906321 -1.5345833314 42.0409764948
-33.8259860524 -1.5610416647 43.0730380592
-33.5515238248 -1.587499998 42.7235457501
-33.5515238248 -1.6139583313 42.7235457501
-33.8259860524 -1.6404166646 43.0730380592
-33.5515238248 -1.6933333312 42.7235457501
-33.5515238248 -1.7197916645 42.7235457501
-33.5515238248 -1.7462499978 42.7235457501
-33.8259860524 -1.7727083311 43.0730380592
-33.281392819 -1.7991666644 42.3795686942
-32.4959789943 -1.8256249977 41.3794453124
-32.7537180644 -1.852083331 41.7076428336
-33.0154906321 -1.8785416643 42.0409764948
-33.0154906321 -1.9049999976 42.0409764948
-33.5515238248 -1.9314583309 42.7235457501
-33.5515238248 -1.9579166642 42.7235457501
-33.5515238248 -1.9843749975 42.7235457501
-33.5515238248 -2.0108333308 42.7235457501
-33.5515238248 -2.0372916641 42.7235457501
-33.5515238248 -2.0637499974 42.7235457501
-33.5515238248 -2.0902083307 42.7235457501
-33.5515238248 -2.116666664 42.7235457501
-33.8259860524 -2.1431249973 43.0730380592
-33.281392819 -2.1695833306 42.3795686942
-33.281392819 -2.1960416639 42.3795686942
-33.281392819 -2.2224999972 42.3795686942
-33.281392819 -2.2489583305 42.3795686942
-33.281392819 -2.2754166638 42.3795686942
-33.281392819 -2.3018749971 42.3795686942
-33.281392819 -2.3283333304 42.3795686942
-33.0154906321 -2.3547916637 42.0409764948
-33.281392819 -2.381249997 42.3795686942
-33.281392819 -2.4077083303 42.3795686942
-33.281392819 -2.4341666636 42.3795686942
-33.281392819 -2.4606249969 42.3795686942
-33.8259860524 -2.4870833302 43.0730380592
-33.5515238248 -2.5135416635 42.7235457501
-33.281392819 -2.5399999968 42.3795686942
-32.4959789943 -2.5664583301 41.3794453124
-32.4959789943 -2.5929166634 41.3794453124
-33.0154906321 -2.6193749967 42.0409764948
-33.0154906321 -2.6722916633 42.0409764948
-33.0154906321 -2.6987499966 42.0409764948
-33.281392819 -2.7252083299 42.3795686942
-33.281392819 -2.7516666632 42.3795686942
-33.281392819 -2.7781249965 42.3795686942
-33.281392819 -2.8045833298 42.3795686942
-33.281392819 -2.8310416631 42.3795686942
-33.281392819 -2.8574999964 42.3795686942
-33.281392819 -2.8839583297 42.3795686942
-33.281392819 -2.910416663 42.3795686942
-33.281392819 -2.9368749963 42.3795686942
-33.281392819 -2.9633333296 42.3795686942
-33.0154906321 -2.9897916629 42.0409764948
-33.281392819 -3.0162499962 42.3795686942
-33.281392819 -3.0427083295 42.3795686942
-33.0154906321 -3.0691666628 42.0409764948
-32.7537180644 -3.0956249961 41.7076428336
-33.0154906321 -3.1220833294 42.0409764948
-33.0154906321 -3.1485416627 42.0409764948
-32.7537180644 -3.174999996 41.7076428336
-33.281392819 -3.2014583293 42.3795686942
-33.281392819 -3.2279166626 42.3795686942
-33.281392819 -3.2543749959 42.3795686942
-33.281392819 -3.2808333292 42.3795686942
-33.281392819 -3.3072916625 42.3795686942
-33.281392819 -3.3337499958 42.3795686942
-33.0154906321 -3.3602083291 42.0409764948
-33.0154906321 -3.3866666624 42.0409764948
-32.4959789943 -3.4131249957 41.3794453124
-32.7537180644 -3.439583329 41.7076428336
-33.281392819 -3.4660416623 42.3795686942
-33.0154906321 -3.4924999956 42.0409764948
-33.281392819 -3.5189583289 42.3795686942
-32.7537180644 -3.5454166622 41.7076428336
-33.0154906321 -3.5718749955 42.0409764948
-33.0154906321 -3.5983333288 42.0409764948
-33.0154906321 -3.6247916621 42.0409764948
-33.281392819 -3.6512499954 42.3795686942
-32.7537180644 -3.6777083287 41.7076428336
-32.7537180644 -3.704166662 41.7076428336
-33.0154906321 -3.7306249953 42.0409764948
-13.9195866889 -3.7570833286 17.7248014675
-32.7537180644 -3.7835416619 41.7076428336
-33.0154906321 -3.8099999952 42.0409764948
-32.7537180644 -3.8364583285 41.7076428336
-32.7537180644 -3.8629166618 41.7076428336
-32.4959789943 -3.8893749951 41.3794453124
-32.7537180644 -3.9158333284 41.7076428336
-32.7537180644 -3.968749995 41.7076428336
-32.7537180644 -3.9952083283 41.7076428336
-32.4959789943 -4.0216666616 41.3794453124
-32.7537180644 -4.0481249949 41.7076428336
-33.0154906321 -4.0745833282 42.0409764948
-32.7537180644 -4.1010416615 41.7076428336
-32.7537180644 -4.1274999948 41.7076428336
-33.281392819 -4.1539583281 42.3795686942
-32.4959789943 -4.1804166614 41.3794453124
-32.7537180644 -4.2068749947 41.7076428336
-32.4959789943 -4.233333328 41.3794453124
-32.7537180644 -4.2597916613 41.7076428336
-32.7537180644 -4.2862499946 41.7076428336
-32.7537180644 -4.3127083279 41.7076428336
-32.7537180644 -4.3391666612 41.7076428336
-32.7537180644 -4.3656249945 41.7076428336
-31.9922315483 -4.3920833278 40.7379877987
-32.7537180644 -4.4185416611 41.7076428336
-32.7537180644 -4.4449999944 41.7076428336
-32.7537180644 -4.4714583277 41.7076428336
-32.7537180644 -4.497916661 41.7076428336
-32.7537180644 -4.5243749943 41.7076428336
-32.7537180644 -4.5508333276 41.7076428336
-32.7537180644 -4.5772916609 41.7076428336
-32.7537180644 -4.6037499942 41.7076428336
-15.3196462209 -4.6302083275 19.5075970203
-32.7537180644 -4.6566666608 41.7076428336
-32.4959789943 -4.6831249941 41.3794453124
-32.7537180644 -4.7095833274 41.7076428336
-32.7537180644 -4.7360416607 41.7076428336
-32.4959789943 -4.762499994 41.3794453124
-32.7537180644 -4.7889583273 41.7076428336
-32.2421802604 -4.8154166606 41.0562653021
-32.4959789943 -4.8418749939 41.3794453124
-32.2421802604 -4.8947916605 41.0562653021
-32.4959789943 -4.9212499938 41.3794453124
-32.7537180644 -4.9477083271 41.7076428336
-32.4959789943 -4.9741666604 41.3794453124
-32.4959789943 -5.0006249937 41.3794453124
-32.7537180644 -5.027083327 41.7076428336
-32.4959789943 -5.0535416603 41.3794453124
-32.4959789943 -5.1593749935 41.3794453124
-32.2421802604 -5.1858333268 41.0562653021
-32.7537180644 -5.2122916601 41.7076428336
-32.4959789943 -5.2387499934 41.3794453124
-32.2421802604 -5.2652083267 41.0562653021
-32.2421802604 -5.29166666 41.0562653021
-32.2421802604 -5.3181249933 41.0562653021
-32.2421802604 -5.3445833266 41.0562653021
-32.2421802604 -5.3710416599 41.0562653021
-32.2421802604 -5.3974999932 41.0562653021
-32.2421802604 -5.4239583265 41.0562653021
-32.2421802604 -5.4504166598 41.0562653021
-32.2421802604 -5.4768749931 41.0562653021
-32.2421802604 -5.5033333264 41.0562653021
-32.2421802604 -5.5297916597 41.0562653021
-32.2421802604 -5.556249993 41.0562653021
-32.2421802604 -5.5827083263 41.0562653021
-32.2421802604 -5.6091666596 41.0562653021
-32.2421802604 -5.6356249929 41.0562653021
-32.2421802604 -5.6885416595 41.0562653021
-15.9534028911 -5.7149999928 20.3146045421
-32.2421802604 -5.7414583261 41.0562653021
-32.2421802604 -5.7679166594 41.0562653021
-31.9922315483 -5.7943749927 40.7379877987
-32.2421802604 -5.820833326 41.0562653021
-32.2421802604 -5.8472916593 41.0562653021
-31.9922315483 -5.8737499926 40.7379877987
-32.2421802604 -5.9002083259 41.0562653021
-32.2421802604 -5.9266666592 41.0562653021
-32.2421802604 -5.9531249925 41.0562653021
-31.9922315483 -5.9795833258 40.7379877987
-32.2421802604 -6.0060416591 41.0562653021
-31.9922315483 -6.0324999924 40.7379877987
-32.2421802604 -6.0589583257 41.0562653021
-31.5035365233 -6.1383333256 40.1156976049
-31.9922315483 -6.1647916589 40.7379877987
-32.2421802604 -6.2177083255 41.0562653021
-31.5035365233 -6.2441666588 40.1156976049
-31.9922315483 -6.2706249921 40.7379877987
-32.2421802604 -6.3235416587 41.0562653021
-31.9922315483 -6.349999992 40.7379877987
-34.6261850789 6.3235416587 43.4281802623
-35.5038276251 6.2970833254 44.5289200237
-35.5038276251 6.2706249921 44.5289200237
-35.5038276251 6.2441666588 44.5289200237
-34.9139629443 6.2177083255 43.7891114185
-35.2064710048 6.1912499922 44.1559751879
-35.2064710048 6.1647916589 44.1559751879
-35.2064710048 6.1383333256 44.1559751879
-35.2064710048 6.1118749923 44.1559751879
-35.2064710048 6.085416659 44.1559751879
-34.6261850789 6.0589583257 43.4281802623
-34.6261850789 6.0324999924 43.4281802623
-34.6261850789 6.0060416591 43.4281802623
-35.2064710048 5.9795833258 44.1559751879
-35.2064710048 5.9531249925 44.1559751879
-35.2064710048 5.9266666592 44.1559751879
-34.6261850789 5.9002083259 43.4281802623
-35.2064710048 5.8737499926 44.1559751879
-35.5038276251 5.8472916593 44.5289200237
-35.5038276251 5.820833326 44.5289200237
-34.6261850789 5.7943749927 43.4281802623
-34.3430228654 5.7679166594 43.0730380592
-34.6261850789 5.7414583261 43.4281802623
-34.6261850789 5.7149999928 43.4281802623
-34.6261850789 5.6885416595 43.4281802623
-34.3430228654 5.6620833262 43.0730380592
-34.064365429 5.6356249929 42.7235457501
-34.064365429 5.6091666596 42.7235457501
-34.064365429 5.5827083263 42.7235457501
-35.5038276251 5.556249993 44.5289200237
-35.5038276251 5.5297916597 44.5289200237
-35.2064710048 5.5033333264 44.1559751879
-35.5038276251 5.4768749931 44.5289200237
-35.5038276251 5.4504166598 44.5289200237
-35.5038276251 5.4239583265 44.5289200237
-35.2064710048 5.3974999932 44.1559751879
-34.064365429 5.3710416599 42.7235457501
-34.064365429 5.3445833266 42.7235457501
-34.064365429 5.3181249933 42.7235457501
-34.064365429 5.29166666 42.7235457501
-34.064365429 5.2652083267 42.7235457501
-35.2064710048 5.2387499934 44.1559751879
-35.2064710048 5.2122916601 44.1559751879
-34.6261850789 5.1858333268 43.4281802623
-34.6261850789 5.1593749935 43.4281802623
-35.5038276251 5.1329166602 44.5289200237
-35.5038276251 5.1064583269 44.5289200237
-34.064365429 5.0799999936 42.7235457501
-34.064365429 5.0535416603 42.7235457501
-34.064365429 5.027083327 42.7235457501
-37.3969393124 5.0006249937 46.9032617372
-37.0677703479 4.9741666604 46.4904178419
-34.9139629443 4.9477083271 43.7891114185
-34.3430228654 4.9212499938 43.0730380592
-35.2064710048 4.8947916605 44.1559751879
-35.5038276251 4.8683333272 44.5289200237
-35.5038276251 4.8418749939 44.5289200237
-35.5038276251 4.8154166606 44.5289200237
-35.5038276251 4.7889583273 44.5289200237
-34.9139629443 4.762499994 43.7891114185
-34.6261850789 4.7360416607 43.4281802623
-34.3430228654 4.7095833274 43.0730380592
-34.9139629443 4.6831249941 43.7891114185
-34.9139629443 4.6566666608 43.7891114185
-35.5038276251 4.6302083275 44.5289200237
-35.5038276251 4.6037499942 44.5289200237
-35.5038276251 4.5772916609 44.5289200237
-35.5038276251 4.5508333276 44.5289200237
-35.5038276251 4.5243749943 44.5289200237
-34.064365429 4.497916661 42.7235457501
-34.064365429 4.4714583277 42.7235457501
-34.064365429 4.4449999944 42.7235457501
-34.064365429 4.4185416611 42.7235457501
-35.5038276251 4.3920833278 44.5289200237
-34.9139629443 4.3656249945 43.7891114185
-34.064365429 4.3391666612 42.7235457501
-34.064365429 4.3127083279 42.7235457501
-34.064365429 4.2862499946 42.7235457501
-34.9139629443 4.2597916613 43.7891114185
-35.5038276251 4.233333328 44.5289200237
-35.5038276251 4.2068749947 44.5289200237
-35.5038276251 4.1804166614 44.5289200237
-34.9139629443 4.1539583281 43.7891114185
-34.9139629443 4.1274999948 43.7891114185
-35.5038276251 4.1010416615 44.5289200237
-34.9139629443 4.0745833282 43.7891114185
-34.064365429 4.0481249949 42.7235457501
-34.9139629443 4.0216666616 43.7891114185
-34.9139629443 3.9952083283 43.7891114185
-34.9139629443 3.968749995 43.7891114185
-34.9139629443 3.9422916617 43.7891114185
-34.064365429 3.9158333284 42.7235457501
-35.5038276251 3.8893749951 44.5289200237
-35.5038276251 3.8629166618 44.5289200237
-34.064365429 3.8364583285 42.7235457501
-35.5038276251 3.8099999952 44.5289200237
-34.064365429 3.7835416619 42.7235457501
-35.5038276251 3.7570833286 44.5289200237
-35.5038276251 3.7306249953 44.5289200237
-34.9139629443 3.704166662 43.7891114185
-34.9139629443 3.6777083287 43.7891114185
-34.9139629443 3.6512499954 43.7891114185
-34.064365429 3.6247916621 42.7235457501
-34.064365429 3.5983333288 42.7235457501
-34.9139629443 3.5718749955 43.7891114185
-35.5038276251 3.5454166622 44.5289200237
-34.064365429 3.5189583289 42.7235457501
-34.064365429 3.4924999956 42.7235457501
-35.5038276251 3.4660416623 44.5289200237
-34.9139629443 3.439583329 43.7891114185
-34.9139629443 3.4131249957 43.7891114185
-34.064365429 3.3866666624 42.7235457501
-34.064365429 3.3602083291 42.7235457501
-34.064365429 3.3337499958 42.7235457501
-34.9139629443 3.3072916625 43.7891114185
-34.9139629443 3.2808333292 43.7891114185
-34.9139629443 3.2543749959 43.7891114185
-34.064365429 3.2279166626 42.7235457501
-34.9139629443 3.2014583293 43.7891114185
-34.9139629443 3.174999996 43.7891114185
-35.5038276251 3.1485416627 44.5289200237
-34.064365429 3.1220833294 42.7235457501
-34.064365429 3.0956249961 42.7235457501
-34.064365429 3.0691666628 42.7235457501
-34.9139629443 3.0427083295 43.7891114185
-34.064365429 3.0162499962 42.7235457501
-34.9139629443 2.9897916629 43.7891114185
-34.6261850789 2.9633333296 43.4281802623
-34.9139629443 2.9368749963 43.7891114185
-34.9139629443 2.910416663 43.7891114185
-34.9139629443 2.8839583297 43.7891114185
-34.9139629443 2.8574999964 43.7891114185
-34.9139629443 2.8310416631 43.7891114185
-34.9139629443 2.8045833298 43.7891114185
-34.9139629443 2.7781249965 43.7891114185
-35.5038276251 2.7516666632 44.5289200237
-34.9139629443 2.7252083299 43.7891114185
-34.6261850789 2.6987499966 43.4281802623
-34.9139629443 2.6722916633 43.7891114185
-34.064365429 2.64583333 42.7235457501
-34.6261850789 2.6193749967 43.4281802623
-34.6261850789 2.5929166634 43.4281802623
-34.9139629443 2.5664583301 43.7891114185
-34.9139629443 2.5399999968 43.7891114185
-34.064365429 2.5135416635 42.7235457501
-34.064365429 2.4870833302 42.7235457501
-34.064365429 2.4606249969 42.7235457501
-34.6261850789 2.4341666636 43.4281802623
-34.9139629443 2.4077083303 43.7891114185
-34.9139629443 2.381249997 43.7891114185
-34.9139629443 2.3547916637 43.7891114185
-34.9139629443 2.3283333304 43.7891114185
-34.6261850789 2.3018749971 43.4281802623
-34.6261850789 2.2754166638 43.4281802623
-34.6261850789 2.2489583305 43.4281802623
-34.6261850789 2.2224999972 43.4281802623
-34.6261850789 2.1960416639 43.4281802623
-34.6261850789 2.1695833306 43.4281802623
-34.6261850789 2.1431249973 43.4281802623
-34.6261850789 2.116666664 43.4281802623
-34.6261850789 2.0902083307 43.4281802623
-34.6261850789 2.0637499974 43.4281802623
-34.6261850789 2.0372916641 43.4281802623
-34.6261850789 2.0108333308 43.4281802623
-34.6261850789 1.9843749975 43.4281802623
-34.6261850789 1.9579166642 43.4281802623
-34.6261850789 1.9314583309 43.4281802623
-34.6261850789 1.9049999976 43.4281802623
-34.6261850789 1.8785416643 43.4281802623
-34.6261850789 1.852083331 43.4281802623
-34.6261850789 1.8256249977 43.4281802623
-34.6261850789 1.7991666644 43.4281802623
-34.6261850789 1.7727083311 43.4281802623
-34.9139629443 1.7462499978 43.7891114185
-34.9139629443 1.7197916645 43.7891114185
-34.6261850789 1.6933333312 43.4281802623
-34.9139629443 1.6668749979 43.7891114185
-34.6261850789 1.6404166646 43.4281802623
-34.3430228654 1.6139583313 43.0730380592
-34.6261850789 1.587499998 43.4281802623
-34.3430228654 1.5610416647 43.0730380592
-32.9926863893 1.5345833314 41.3794453124
-34.3430228654 1.5081249981 43.0730380592
-34.6261850789 1.4816666648 43.4281802623
-34.3430228654 1.4552083315 43.0730380592
-34.6261850789 1.4287499982 43.4281802623
-34.3430228654 1.4022916649 43.0730380592
-34.6261850789 1.3758333316 43.4281802623
-34.6261850789 1.3493749983 43.4281802623
-34.6261850789 1.322916665 43.4281802623
-34.6261850789 1.2964583317 43.4281802623
-34.3430228654 1.2699999984 43.0730380592
-34.3430228654 1.2435416651 43.0730380592
-34.3430228654 1.2170833318 43.0730380592
-34.6261850789 1.1641666652 43.4281802623
-34.3430228654 1.1377083319 43.0730380592
-34.3430228654 1.1112499986 43.0730380592
-34.6261850789 1.0847916653 43.4281802623
-33.5201388641 1.058333332 42.0409764948
-34.3430228654 1.0318749987 43.0730380592
-33.5201388641 0.9524999988 42.0409764948
-33.5201388641 0.9260416655 42.0409764948
-33.5201388641 0.8995833322 42.0409764948
-34.3430228654 0.8731249989 43.0730380592
-34.6261850789 0.8466666656 43.4281802623
-33.5201388641 0.8202083323 42.0409764948
-33.5201388641 0.793749999 42.0409764948
-34.6261850789 0.7672916657 43.4281802623
-34.9139629443 0.7408333324 43.7891114185
-34.3430228654 0.7143749991 43.0730380592
-33.7901054179 0.6879166658 42.3795686942
-34.3430228654 0.6614583325 43.0730380592
-34.3430228654 0.6349999992 43.0730380592
-34.3430228654 0.6085416659 43.0730380592
-34.3430228654 0.5820833326 43.0730380592
-33.5201388641 0.5556249993 42.0409764948
-34.3430228654 0.529166666 43.0730380592
-34.9139629443 0.5027083327 43.7891114185
-33.5201388641 0.4762499994 42.0409764948
-34.3430228654 0.4497916661 43.0730380592
-34.3430228654 0.4233333328 43.0730380592
-34.3430228654 0.3968749995 43.0730380592
-34.3430228654 0.3439583329 43.0730380592
-34.3430228654 0.3174999996 43.0730380592
-34.3430228654 0.2910416663 43.0730380592
-33.5201388641 0.264583333 42.0409764948
-34.3430228654 0.2381249997 43.0730380592
-33.5201388641 0.2116666664 42.0409764948
-33.5201388641 0.1852083331 42.0409764948
-33.5201388641 0.1587499998 42.0409764948
-34.3430228654 0.1322916665 43.0730380592
-33.5201388641 0.1058333332 42.0409764948
-33.7901054179 0.0793749999 42.3795686942
-34.064365429 0.0529166666 42.7235457501
-34.064365429 0.0264583333 42.7235457501
-34.064365429 0.0 42.7235457501
-34.064365429 -0.0264583333 42.7235457501
-34.9139629443 -0.0529166666 43.7891114185
-34.9139629443 -0.0793749999 43.7891114185
-34.9139629443 -0.1058333332 43.7891114185
-34.064365429 -0.1322916665 42.7235457501
-34.9139629443 -0.1587499998 43.7891114185
-34.064365429 -0.1852083331 42.7235457501
-34.3430228654 -0.2116666664 43.0730380592
-34.064365429 -0.2381249997 42.7235457501
-34.3430228654 -0.2910416663 43.0730380592
-34.064365429 -0.3174999996 42.7235457501
-34.064365429 -0.3439583329 42.7235457501
-34.3430228654 -0.3704166662 43.0730380592
-34.9139629443 -0.4233333328 43.7891114185
-34.064365429 -0.4497916661 42.7235457501
-34.064365429 -0.4762499994 42.7235457501
-34.064365429 -0.529166666 42.7235457501
-34.064365429 -0.5556249993 42.7235457501
-33.7901054179 -0.5820833326 42.3795686942
-33.7901054179 -0.6085416659 42.3795686942
-34.064365429 -0.6349999992 42.7235457501
-34.064365429 -0.6614583325 42.7235457501
-32.9926863893 -0.6879166658 41.3794453124
-32.9926863893 -0.7143749991 41.3794453124
-33.7901054179 -0.7408333324 42.3795686942
-33.5201388641 -0.7672916657 42.0409764948
-34.064365429 -0.793749999 42.7235457501
-33.5201388641 -0.8202083323 42.0409764948
-33.7901054179 -0.8466666656 42.3795686942
-33.7901054179 -0.8731249989 42.3795686942
-34.064365429 -0.8995833322 42.7235457501
-33.7901054179 -0.9260416655 42.3795686942
-34.064365429 -0.9524999988 42.7235457501
-32.9926863893 -0.9789583321 41.3794453124
-32.9926863893 -1.0054166654 41.3794453124
-32.9926863893 -1.0318749987 41.3794453124
-33.5201388641 -1.058333332 42.0409764948
-33.7901054179 -1.0847916653 42.3795686942
-33.7901054179 -1.1112499986 42.3795686942
-33.7901054179 -1.1377083319 42.3795686942
-33.7901054179 -1.1641666652 42.3795686942
-33.7901054179 -1.1906249985 42.3795686942
-33.7901054179 -1.2170833318 42.3795686942
-33.7901054179 -1.2435416651 42.3795686942
-33.7901054179 -1.2699999984 42.3795686942
-33.7901054179 -1.2964583317 42.3795686942
-33.7901054179 -1.322916665 42.3795686942
-34.3430228654 -1.3493749983 43.0730380592
-33.7901054179 -1.3758333316 42.3795686942
-33.7901054179 -1.4022916649 42.3795686942
-32.9926863893 -1.4287499982 41.3794453124
-33.2543650514 -1.4552083315 41.7076428336
-33.5201388641 -1.4816666648 42.0409764948
-33.2543650514 -1.5081249981 41.7076428336
-32.9926863893 -1.5345833314 41.3794453124
-33.7901054179 -1.5610416647 42.3795686942
-33.5201388641 -1.587499998 42.0409764948
-33.7901054179 -1.6139583313 42.3795686942
-33.7901054179 -1.6404166646 42.3795686942
-33.7901054179 -1.6668749979 42.3795686942
-33.5201388641 -1.6933333312 42.0409764948
-34.3430228654 -1.7197916645 43.0730380592
-33.7901054179 -1.7462499978 42.3795686942
-32.9926863893 -1.7727083311 41.3794453124
-33.7901054179 -1.7991666644 42.3795686942
-33.7901054179 -1.8256249977 42.3795686942
-33.7901054179 -1.852083331 42.3795686942
-32.9926863893 -1.8785416643 41.3794453124
-33.7901054179 -1.9049999976 42.3795686942
-32.9926863893 -1.9314583309 41.3794453124
-32.9926863893 -2.0372916641 41.3794453124
-33.7901054179 -2.0637499974 42.3795686942
-33.5201388641 -2.0902083307 42.0409764948
-33.7901054179 -2.116666664 42.3795686942
-33.7901054179 -2.1431249973 42.3795686942
-33.7901054179 -2.1695833306 42.3795686942
-32.9926863893 -2.1960416639 41.3794453124
-33.7901054179 -2.2224999972 42.3795686942
-34.3430228654 -2.2489583305 43.0730380592
-34.9139629443 -2.2754166638 43.7891114185
-32.9926863893 -2.3018749971 41.3794453124
-33.7901054179 -2.3283333304 42.3795686942
-33.5201388641 -2.3547916637 42.0409764948
-33.5201388641 -2.381249997 42.0409764948
-33.5201388641 -2.4077083303 42.0409764948
-33.5201388641 -2.4341666636 42.0409764948
-33.5201388641 -2.4606249969 42.0409764948
-33.5201388641 -2.4870833302 42.0409764948
-33.5201388641 -2.5135416635 42.0409764948
-33.5201388641 -2.5399999968 42.0409764948
-33.7901054179 -2.5664583301 42.3795686942
-33.7901054179 -2.5929166634 42.3795686942
-33.2543650514 -2.6193749967 41.7076428336
-33.2543650514 -2.64583333 41.7076428336
-33.5201388641 -2.6722916633 42.0409764948
-33.2543650514 -2.6987499966 41.7076428336
-33.2543650514 -2.7252083299 41.7076428336
-33.2543650514 -2.7516666632 41.7076428336
-33.5201388641 -2.7781249965 42.0409764948
-33.2543650514 -2.8045833298 41.7076428336
-33.2543650514 -2.8310416631 41.7076428336
-33.2543650514 -2.8574999964 41.7076428336
-33.5201388641 -2.8839583297 42.0409764948
-33.2543650514 -2.910416663 41.7076428336
-33.2543650514 -2.9368749963 41.7076428336
-33.5201388641 -2.9633333296 42.0409764948
-33.2543650514 -2.9897916629 41.7076428336
-33.5201388641 -3.0162499962 42.0409764948
-33.2543650514 -3.0427083295 41.7076428336
-33.7901054179 -3.0691666628 42.3795686942
-33.7901054179 -3.0956249961 42.3795686942
-32.9926863893 -3.1220833294 41.3794453124
-33.2543650514 -3.1485416627 41.7076428336
-32.481239065 -3.174999996 40.7379877987
-33.2543650514 -3.2014583293 41.7076428336
-33.2543650514 -3.2279166626 41.7076428336
-33.2543650514 -3.2543749959 41.7076428336
-33.2543650514 -3.2808333292 41.7076428336
-33.2543650514 -3.3072916625 41.7076428336
-33.2543650514 -3.3337499958 41.7076428336
-33.2543650514 -3.3602083291 41.7076428336
-33.2543650514 -3.3866666624 41.7076428336
-33.2543650514 -3.4131249957 41.7076428336
-32.481239065 -3.439583329 40.7379877987
-33.2543650514 -3.4660416623 41.7076428336
-33.2543650514 -3.4924999956 41.7076428336
-32.481239065 -3.5189583289 40.7379877987
-33.2543650514 -3.5454166622 41.7076428336
-32.9926863893 -3.5718749955 41.3794453124
-32.9926863893 -3.5983333288 41.3794453124
-32.481239065 -3.6247916621 40.7379877987
-32.9926863893 -3.6512499954 41.3794453124
-32.9926863893 -3.6777083287 41.3794453124
-32.9926863893 -3.704166662 41.3794453124
-32.9926863893 -3.7306249953 41.3794453124
-32.9926863893 -3.7570833286 41.3794453124
-32.9926863893 -3.7835416619 41.3794453124
-32.9926863893 -3.8099999952 41.3794453124
-32.9926863893 -3.8364583285 41.3794453124
-32.9926863893 -3.8629166618 41.3794453124
-32.9926863893 -3.8893749951 41.3794453124
-32.9926863893 -3.9158333284 41.3794453124
-32.9926863893 -3.9422916617 41.3794453124
-32.9926863893 -3.968749995 41.3794453124
-32.9926863893 -3.9952083283 41.3794453124
-32.9926863893 -4.0216666616 41.3794453124
-32.9926863893 -4.0481249949 41.3794453124
-32.9926863893 -4.0745833282 41.3794453124
-32.481239065 -4.1010416615 40.7379877987
-32.7350082921 -4.1274999948 41.0562653021
-32.9926863893 -4.1539583281 41.3794453124
-32.9926863893 -4.1804166614 41.3794453124
-32.9926863893 -4.2068749947 41.3794453124
-32.9926863893 -4.233333328 41.3794453124
-32.9926863893 -4.2597916613 41.3794453124
-32.9926863893 -4.2862499946 41.3794453124
-32.9926863893 -4.3127083279 41.3794453124
-33.2543650514 -4.3391666612 41.7076428336
-32.7350082921 -4.3656249945 41.0562653021
-31.9850742409 -4.3920833278 40.1156976049
-32.2312897939 -4.4185416611 40.4245012862
-32.7350082921 -4.4449999944 41.0562653021
-32.7350082921 -4.4714583277 41.0562653021
-32.7350082921 -4.497916661 41.0562653021
-32.7350082921 -4.5243749943 41.0562653021
-32.7350082921 -4.5508333276 41.0562653021
-32.7350082921 -4.5772916609 41.0562653021
-32.7350082921 -4.6037499942 41.0562653021
-32.7350082921 -4.6302083275 41.0562653021
-32.9926863893 -4.6566666608 41.3794453124
-32.9926863893 -4.6831249941 41.3794453124
-33.2543650514 -4.7095833274 41.7076428336
-32.9926863893 -4.7360416607 41.3794453124
-32.7350082921 -4.762499994 41.0562653021
-32.7350082921 -4.7889583273 41.0562653021
-32.7350082921 -4.8154166606 41.0562653021
-32.7350082921 -4.8418749939 41.0562653021
-32.7350082921 -4.8683333272 41.0562653021
-32.7350082921 -4.8947916605 41.0562653021
-32.481239065 -4.9212499938 40.7379877987
-31.9850742409 -4.9477083271 40.1156976049
-32.7350082921 -4.9741666604 41.0562653021
-32.7350082921 -5.0006249937 41.0562653021
-32.481239065 -5.027083327 40.7379877987
-32.7350082921 -5.0535416603 41.0562653021
-32.7350082921 -5.0799999936 41.0562653021
-32.7350082921 -5.1064583269 41.0562653021
-27.7320158171 -5.1593749935 34.7815094039
-32.481239065 -5.2122916601 40.7379877987
-32.481239065 -5.2387499934 40.7379877987
-32.481239065 -5.2652083267 40.7379877987
-31.9850742409 -5.29166666 40.1156976049
-32.7350082921 -5.3181249933 41.0562653021
-31.9850742409 -5.3445833266 40.1156976049
-32.481239065 -5.3710416599 40.7379877987
-32.7350082921 -5.3974999932 41.0562653021
-32.7350082921 -5.4239583265 41.0562653021
-32.7350082921 -5.4504166598 41.0562653021
-32.481239065 -5.4768749931 40.7379877987
-32.481239065 -5.5033333264 40.7379877987
-32.481239065 -5.5297916597 40.7379877987
-32.481239065 -5.5827083263 40.7379877987
-32.481239065 -5.6091666596 40.7379877987
-32.481239065 -5.6356249929 40.7379877987
-31.9850742409 -5.6620833262 40.1156976049
-32.2312897939 -5.6885416595 40.4245012862
-31.9850742409 -5.7149999928 40.1156976049
-31.9850742409 -5.7414583261 40.1156976049
-32.2312897939 -5.7679166594 40.4245012862
-32.2312897939 -5.7943749927 40.4245012862
-31.9850742409 -5.820833326 40.1156976049
-31.9850742409 -5.8472916593 40.1156976049
-32.2312897939 -5.8737499926 40.4245012862
-31.9850742409 -5.9002083259 40.1156976049
-32.2312897939 -5.9266666592 40.4245012862
-32.481239065 -5.9531249925 40.7379877987
-32.2312897939 -5.9795833258 40.4245012862
-32.2312897939 -6.0060416591 40.4245012862
-31.9850742409 -6.0324999924 40.1156976049
-31.7425087444 -6.0589583257 39.8114718266
-31.5035121238 -6.085416659 39.5117221342
-31.9850742409 -6.1118749923 40.1156976049
-31.9850742409 -6.1383333256 40.1156976049
-31.9850742409 -6.1647916589 40.1156976049
-32.2312897939 -6.1912499922 40.4245012862
-32.2312897939 -6.2177083255 40.4245012862
-32.2312897939 -6.2441666588 40.4245012862
-26.6630518576 -6.2706249921 33.4408142212
-32.2312897939 -6.3235416587 40.4245012862
-35.134135867 6.3235416587 43.4281802623
-36.0246530403 6.2970833254 44.5289200237
-36.0246530403 6.2706249921 44.5289200237
-35.134135867 6.2441666588 43.4281802623
-34.8468197893 6.2177083255 43.0730380592
-36.0246530403 6.1912499922 44.5289200237
-35.134135867 6.1647916589 43.4281802623
-36.0246530403 6.1383333256 44.5289200237
-36.0246530403 6.1118749923 44.5289200237
-35.7229343302 6.085416659 44.1559751879
-35.134135867 6.0589583257 43.4281802623
-35.134135867 6.0324999924 43.4281802623
-35.7229343302 6.0060416591 44.1559751879
-35.4261353061 5.9795833258 43.7891114185
-34.5640745718 5.9531249925 42.7235457501
-34.5640745718 5.9266666592 42.7235457501
-35.4261353061 5.9002083259 43.7891114185
-35.134135867 5.8737499926 43.4281802623
-35.4261353061 5.8472916593 43.7891114185
-34.5640745718 5.820833326 42.7235457501
-35.4261353061 5.7943749927 43.7891114185
-35.134135867 5.7679166594 43.4281802623
-35.4261353061 5.7414583261 43.7891114185
-34.5640745718 5.7149999928 42.7235457501
-34.5640745718 5.6885416595 42.7235457501
-34.5640745718 5.6620833262 42.7235457501
-34.5640745718 5.6356249929 42.7235457501
-36.0246530403 5.6091666596 44.5289200237
-35.7229343302 5.5827083263 44.1559751879
-36.0246530403 5.556249993 44.5289200237
-34.8468197893 5.5297916597 43.0730380592
-34.5640745718 5.5033333264 42.7235457501
-34.8468197893 5.4768749931 43.0730380592
-35.4261353061 5.4504166598 43.7891114185
-35.4261353061 5.4239583265 43.7891114185
-35.4261353061 5.3974999932 43.7891114185
-35.4261353061 5.3710416599 43.7891114185
-35.4261353061 5.3445833266 43.7891114185
-34.5640745718 5.3181249933 42.7235457501
-34.5640745718 5.29166666 42.7235457501
-34.5640745718 5.2652083267 42.7235457501
-35.4261353061 5.2387499934 43.7891114185
-34.5640745718 5.2122916601 42.7235457501
-34.5640745718 5.1858333268 42.7235457501
-34.5640745718 5.1593749935 42.7235457501
-34.5640745718 5.1329166602 42.7235457501
-34.5640745718 5.1064583269 42.7235457501
-35.4261353061 5.0799999936 43.7891114185
-34.5640745718 5.0535416603 42.7235457501
-36.0246530403 5.027083327 44.5289200237
-34.5640745718 5.0006249937 42.7235457501
-34.5640745718 4.9741666604 42.7235457501
-34.5640745718 4.9477083271 42.7235457501
-34.5640745718 4.9212499938 42.7235457501
-34.5640745718 4.8947916605 42.7235457501
-34.5640745718 4.8683333272 42.7235457501
-35.4261353061 4.8418749939 43.7891114185
-34.5640745718 4.8154166606 42.7235457501
-34.5640745718 4.7889583273 42.7235457501
-34.5640745718 4.762499994 42.7235457501
-34.5640745718 4.7360416607 42.7235457501
-35.4261353061 4.7095833274 43.7891114185
-34.5640745718 4.6831249941 42.7235457501
-34.5640745718 4.6566666608 42.7235457501
-36.0246530403 4.6302083275 44.5289200237
-34.5640745718 4.6037499942 42.7235457501
-35.4261353061 4.5772916609 43.7891114185
-35.4261353061 4.5508333276 43.7891114185
-34.5640745718 4.5243749943 42.7235457501
-35.4261353061 4.497916661 43.7891114185
-34.5640745718 4.4714583277 42.7235457501
-34.5640745718 4.4449999944 42.7235457501
-34.5640745718 4.4185416611 42.7235457501
-35.134135867 4.3920833278 43.4281802623
-35.4261353061 4.3656249945 43.7891114185
-35.4261353061 4.3391666612 43.7891114185
-35.134135867 4.3127083279 43.4281802623
-34.5640745718 4.2862499946 42.7235457501
-34.5640745718 4.2597916613 42.7235457501
-34.5640745718 4.233333328 42.7235457501
-35.134135867 4.2068749947 43.4281802623
-35.4261353061 4.1804166614 43.7891114185
-34.5640745718 4.1539583281 42.7235457501
-34.5640745718 4.1274999948 42.7235457501
-34.5640745718 4.1010416615 42.7235457501
-35.134135867 4.0745833282 43.4281802623
-34.5640745718 4.0481249949 42.7235457501
-35.134135867 4.0216666616 43.4281802623
-34.5640745718 3.9952083283 42.7235457501
-34.5640745718 3.968749995 42.7235457501
-34.5640745718 3.9422916617 42.7235457501
-34.5640745718 3.9158333284 42.7235457501
-36.0246530403 3.8893749951 44.5289200237
-34.5640745718 3.8629166618 42.7235457501
-34.5640745718 3.8364583285 42.7235457501
-35.4261353061 3.8099999952 43.7891114185
-35.134135867 3.7835416619 43.4281802623
-35.134135867 3.7570833286 43.4281802623
-35.134135867 3.7306249953 43.4281802623
-35.134135867 3.704166662 43.4281802623
-35.134135867 3.6777083287 43.4281802623
-35.134135867 3.6512499954 43.4281802623
-35.134135867 3.6247916621 43.4281802623
-35.134135867 3.5983333288 43.4281802623
-35.134135867 3.5718749955 43.4281802623
-35.134135867 3.5454166622 43.4281802623
-35.134135867 3.5189583289 43.4281802623
-35.134135867 3.4924999956 43.4281802623
-35.134135867 3.4660416623 43.4281802623
-35.134135867 3.439583329 43.4281802623
-35.134135867 3.4131249957 43.4281802623
-35.134135867 3.3866666624 43.4281802623
-35.134135867 3.3602083291 43.4281802623
-35.134135867 3.3337499958 43.4281802623
-35.134135867 3.3072916625 43.4281802623
-35.134135867 3.2808333292 43.4281802623
-35.134135867 3.2543749959 43.4281802623
-35.134135867 3.2279166626 43.4281802623
-35.134135867 3.2014583293 43.4281802623
-35.134135867 3.174999996 43.4281802623
-35.4261353061 3.1485416627 43.7891114185
-35.4261353061 3.1220833294 43.7891114185
-35.134135867 3.0956249961 43.4281802623
-35.134135867 3.0691666628 43.4281802623
-34.0118644444 3.0427083295 42.0409764948
-34.0118644444 3.0162499962 42.0409764948
-35.134135867 2.9897916629 43.4281802623
-35.134135867 2.9633333296 43.4281802623
-35.134135867 2.9368749963 43.4281802623
-35.134135867 2.910416663 43.4281802623
-35.134135867 2.8839583297 43.4281802623
-35.134135867 2.8574999964 43.4281802623
-35.134135867 2.8310416631 43.4281802623
-35.134135867 2.8045833298 43.4281802623
-35.134135867 2.7781249965 43.4281802623
-35.134135867 2.7516666632 43.4281802623
-35.134135867 2.7252083299 43.4281802623
-35.134135867 2.6987499966 43.4281802623
-35.134135867 2.6722916633 43.4281802623
-35.134135867 2.64583333 43.4281802623
-35.134135867 2.6193749967 43.4281802623
-35.134135867 2.5929166634 43.4281802623
-35.134135867 2.5664583301 43.4281802623
-35.134135867 2.5399999968 43.4281802623
-35.134135867 2.5135416635 43.4281802623
-34.0118644444 2.4870833302 42.0409764948
-35.134135867 2.4606249969 43.4281802623
-35.134135867 2.4341666636 43.4281802623
-35.134135867 2.4077083303 43.4281802623
-35.4261353061 2.381249997 43.7891114185
-34.8468197893 2.3547916637 43.0730380592
-35.134135867 2.3283333304 43.4281802623
-34.0118644444 2.3018749971 42.0409764948
-34.8468197893 2.2754166638 43.0730380592
-34.0118644444 2.2489583305 42.0409764948
-28.9099860122 2.2224999972 35.7347079397
-34.8468197893 2.1960416639 43.0730380592
-34.2857912879 2.1695833306 42.3795686942
-34.8468197893 2.1431249973 43.0730380592
-34.0118644444 2.116666664 42.0409764948
-34.0118644444 2.0902083307 42.0409764948
-34.0118644444 2.0637499974 42.0409764948
-34.0118644444 2.0372916641 42.0409764948
-34.0118644444 2.0108333308 42.0409764948
-34.0118644444 1.9843749975 42.0409764948
-34.0118644444 1.9579166642 42.0409764948
-34.0118644444 1.9314583309 42.0409764948
-34.0118644444 1.9049999976 42.0409764948
-34.8468197893 1.8785416643 43.0730380592
-34.8468197893 1.852083331 43.0730380592
-34.8468197893 1.8256249977 43.0730380592
-34.8468197893 1.7991666644 43.0730380592
-34.8468197893 1.7727083311 43.0730380592
-35.4261353061 1.7462499978 43.7891114185
-34.8468197893 1.7197916645 43.0730380592
-34.0118644444 1.6933333312 42.0409764948
-34.0118644444 1.6668749979 42.0409764948
-34.0118644444 1.6404166646 42.0409764948
-34.8468197893 1.6139583313 43.0730380592
-34.0118644444 1.587499998 42.0409764948
-34.8468197893 1.5610416647 43.0730380592
-34.8468197893 1.5345833314 43.0730380592
-34.8468197893 1.5081249981 43.0730380592
-34.0118644444 1.4816666648 42.0409764948
-34.8468197893 1.4552083315 43.0730380592
-34.8468197893 1.4287499982 43.0730380592
-34.8468197893 1.4022916649 43.0730380592
-34.8468197893 1.3758333316 43.0730380592
-34.8468197893 1.3493749983 43.0730380592
-34.8468197893 1.322916665 43.0730380592
-34.8468197893 1.2964583317 43.0730380592
-34.8468197893 1.2699999984 43.0730380592
-34.5640745718 1.2435416651 42.7235457501
-34.0118644444 1.2170833318 42.0409764948
-34.5640745718 1.1906249985 42.7235457501
-35.4261353061 1.1641666652 43.7891114185
-34.5640745718 1.1377083319 42.7235457501
-34.5640745718 1.0847916653 42.7235457501
-34.8468197893 1.058333332 43.0730380592
-34.8468197893 1.0318749987 43.0730380592
-34.8468197893 1.0054166654 43.0730380592
-34.8468197893 0.9789583321 43.0730380592
-34.5640745718 0.9524999988 42.7235457501
-34.5640745718 0.9260416655 42.7235457501
-34.5640745718 0.8995833322 42.7235457501
-34.5640745718 0.8731249989 42.7235457501
-34.5640745718 0.8466666656 42.7235457501
-34.8468197893 0.8202083323 43.0730380592
-34.5640745718 0.793749999 42.7235457501
-33.7421918477 0.7672916657 41.7076428336
-34.5640745718 0.7408333324 42.7235457501
-34.5640745718 0.7143749991 42.7235457501
-34.5640745718 0.6879166658 42.7235457501
-34.5640745718 0.6614583325 42.7235457501
-34.8468197893 0.6349999992 43.0730380592
-34.5640745718 0.6085416659 42.7235457501
-34.5640745718 0.5820833326 42.7235457501
-34.5640745718 0.5556249993 42.7235457501
-34.5640745718 0.529166666 42.7235457501
-34.5640745718 0.5027083327 42.7235457501
-34.5640745718 0.4762499994 42.7235457501
-34.2857912879 0.4497916661 42.3795686942
-34.2857912879 0.4233333328 42.3795686942
-34.5640745718 0.3968749995 42.7235457501
-33.4766744756 0.3704166662 41.3794453124
-34.5640745718 0.3439583329 42.7235457501
-34.5640745718 0.3174999996 42.7235457501
-34.2857912879 0.2910416663 42.3795686942
-34.2857912879 0.264583333 42.3795686942
-34.5640745718 0.2381249997 42.7235457501
-34.5640745718 0.2116666664 42.7235457501
-34.8468197893 0.1852083331 43.0730380592
-34.0118644444 0.1587499998 42.0409764948
-34.8468197893 0.1322916665 43.0730380592
-34.2857912879 0.1058333332 42.3795686942
-34.8468197893 0.0793749999 43.0730380592
-34.5640745718 0.0529166666 42.7235457501
-34.5640745718 0.0264583333 42.7235457501
-33.4766744756 0.0 41.3794453124
-33.4766744756 -0.0264583333 41.3794453124
-33.4766744756 -0.0529166666 41.3794453124
-34.5640745718 -0.0793749999 42.7235457501
-34.2857912879 -0.1058333332 42.3795686942
-34.2857912879 -0.1322916665 42.3795686942
-34.2857912879 -0.1587499998 42.3795686942
-34.2857912879 -0.1852083331 42.3795686942
-34.2857912879 -0.2116666664 42.3795686942
-34.2857912879 -0.2381249997 42.3795686942
-34.2857912879 -0.264583333 42.3795686942
-34.8468197893 -0.2910416663 43.0730380592
-34.2857912879 -0.3174999996 42.3795686942
-34.2857912879 -0.3439583329 42.3795686942
-34.2857912879 -0.3704166662 42.3795686942
-34.8468197893 -0.3968749995 43.0730380592
-34.5640745718 -0.4233333328 42.7235457501
-34.2857912879 -0.4497916661 42.3795686942
-34.2857912879 -0.4762499994 42.3795686942
-33.4766744756 -0.5027083327 41.3794453124
-34.2857912879 -0.529166666 42.3795686942
-34.2857912879 -0.5556249993 42.3795686942
-34.8468197893 -0.5820833326 43.0730380592
-34.2857912879 -0.6085416659 42.3795686942
-34.2857912879 -0.6349999992 42.3795686942
-34.2857912879 -0.6614583325 42.3795686942
-34.2857912879 -0.6879166658 42.3795686942
-34.2857912879 -0.7143749991 42.3795686942
-34.8468197893 -0.7408333324 43.0730380592
-34.8468197893 -0.7672916657 43.0730380592
-34.8468197893 -0.793749999 43.0730380592
-34.2857912879 -0.8202083323 42.3795686942
-34.2857912879 -0.8466666656 42.3795686942
-34.2857912879 -0.8731249989 42.3795686942
-34.2857912879 -0.8995833322 42.3795686942
-34.2857912879 -0.9260416655 42.3795686942
-34.2857912879 -0.9524999988 42.3795686942
-34.2857912879 -0.9789583321 42.3795686942
-34.2857912879 -1.0054166654 42.3795686942
-34.2857912879 -1.0318749987 42.3795686942
-34.2857912879 -1.058333332 42.3795686942
-34.2857912879 -1.0847916653 42.3795686942
-34.0118644444 -1.1112499986 42.0409764948
-32.9577244458 -1.1377083319 40.7379877987
-33.2152163549 -1.1641666652 41.0562653021
-32.9577244458 -1.1906249985 40.7379877987
-34.0118644444 -1.2170833318 42.0409764948
-34.0118644444 -1.2435416651 42.0409764948
-34.2857912879 -1.2699999984 42.3795686942
-34.0118644444 -1.2964583317 42.0409764948
-34.0118644444 -1.322916665 42.0409764948
-34.0118644444 -1.3493749983 42.0409764948
-34.0118644444 -1.3758333316 42.0409764948
-34.0118644444 -1.4287499982 42.0409764948
-34.0118644444 -1.4552083315 42.0409764948
-34.0118644444 -1.4816666648 42.0409764948
-34.0118644444 -1.5081249981 42.0409764948
-34.0118644444 -1.5345833314 42.0409764948
-34.0118644444 -1.5610416647 42.0409764948
-34.0118644444 -1.587499998 42.0409764948
-34.2857912879 -1.6139583313 42.3795686942
-34.2857912879 -1.6404166646 42.3795686942
-34.2857912879 -1.6668749979 42.3795686942
-34.0118644444 -1.6933333312 42.0409764948
-32.9577244458 -1.7197916645 40.7379877987
-34.2857912879 -1.7462499978 42.3795686942
-34.2857912879 -1.7727083311 42.3795686942
-34.0118644444 -1.7991666644 42.0409764948
-34.0118644444 -1.8256249977 42.0409764948
-34.0118644444 -1.852083331 42.0409764948
-34.0118644444 -1.8785416643 42.0409764948
-32.9577244458 -1.9049999976 40.7379877987
-34.0118644444 -1.9314583309 42.0409764948
-34.0118644444 -1.9579166642 42.0409764948
-33.7421918477 -1.9843749975 41.7076428336
-33.7421918477 -2.0108333308 41.7076428336
-33.7421918477 -2.0372916641 41.7076428336
-34.0118644444 -2.0637499974 42.0409764948
-34.0118644444 -2.0902083307 42.0409764948
-34.0118644444 -2.116666664 42.0409764948
-34.2857912879 -2.1431249973 42.3795686942
-33.7421918477 -2.1695833306 41.7076428336
-33.7421918477 -2.1960416639 41.7076428336
-32.9577244458 -2.2224999972 40.7379877987
-33.7421918477 -2.2489583305 41.7076428336
-33.7421918477 -2.2754166638 41.7076428336
-34.0118644444 -2.3018749971 42.0409764948
-33.7421918477 -2.3283333304 41.7076428336
-33.7421918477 -2.3547916637 41.7076428336
-33.7421918477 -2.381249997 41.7076428336
-33.7421918477 -2.4077083303 41.7076428336
-33.7421918477 -2.4341666636 41.7076428336
-33.7421918477 -2.4606249969 41.7076428336
-33.7421918477 -2.4870833302 41.7076428336
-33.7421918477 -2.5135416635 41.7076428336
-33.7421918477 -2.5399999968 41.7076428336
-32.9577244458 -2.5664583301 40.7379877987
-32.9577244458 -2.5929166634 40.7379877987
-32.9577244458 -2.6193749967 40.7379877987
-33.7421918477 -2.64583333 41.7076428336
-33.7421918477 -2.6722916633 41.7076428336
-33.7421918477 -2.6987499966 41.7076428336
-33.4766744756 -2.7252083299 41.3794453124
-33.7421918477 -2.7516666632 41.7076428336
-33.7421918477 -2.7781249965 41.7076428336
-33.7421918477 -2.8045833298 41.7076428336
-32.9577244458 -2.8310416631 40.7379877987
-33.4766744756 -2.8574999964 41.3794453124
-33.4766744756 -2.8839583297 41.3794453124
-32.9577244458 -2.910416663 40.7379877987
-33.4766744756 -2.9368749963 41.3794453124
